ply
format ascii 1.0
element vertex 926
property float x
property float y
property float z
property float nx
property float ny
property float nz
property uchar diffuse_red
property uchar diffuse_green
property uchar diffuse_blue
end_header
-0.8842 1.9968 -1.6604 0.487 -0.402 0.775 102 99 92
-0.8121 2.0328 -1.6902 0.152 -0.265 0.952 105 104 99
-0.8038 2.0358 -1.6907 0.152 -0.265 0.952 85 85 81
-0.7882 2.0402 -1.6879 0.521 -0.428 0.738 16 20 14
-0.7615 2.0526 -1.6962 0.195 -0.411 0.890 35 36 34
-0.7157 2.0748 -1.7135 0.531 -0.516 0.672 34 39 43
0.2230 2.4634 -1.8813 -0.066 0.261 0.963 105 110 104
0.2501 2.4723 -1.8798 -0.218 0.360 0.907 39 43 40
0.2589 2.4750 -1.8788 -0.218 0.360 0.907 29 34 33
0.2702 2.4803 -1.8827 -0.192 0.219 0.957 41 47 46
0.2799 2.4841 -1.8837 -0.285 0.418 0.863 106 112 108
0.2871 2.4851 -1.8795 -0.294 0.425 0.856 132 137 131
0.2942 2.4860 -1.8750 -0.260 0.433 0.863 123 128 122
0.4146 2.5207 -1.8550 -0.458 0.444 0.770 65 71 63
0.4204 2.5204 -1.8484 -0.241 0.472 0.848 101 106 99
-3.0169 1.3867 -2.0582 -0.171 -0.943 0.286 140 140 142
-2.8120 1.4037 -1.9066 -0.165 -0.831 0.531 127 127 131
-2.7870 1.4070 -1.8918 -0.072 -0.821 0.566 99 103 108
-2.7791 1.4085 -1.8882 -0.181 -0.835 0.520 86 91 95
-2.7629 1.4112 -1.8799 -0.183 -0.822 0.539 139 144 148
-2.7465 1.4135 -1.8705 -0.136 -0.759 0.637 154 157 162
-2.7303 1.4161 -1.8619 -0.198 -0.775 0.601 156 160 165
-2.7225 1.4177 -1.8588 -0.197 -0.781 0.592 143 146 152
-2.7147 1.4193 -1.8556 -0.105 -0.750 0.652 115 119 124
-2.7068 1.4207 -1.8518 -0.038 -0.714 0.699 110 114 118
-2.1903 1.4465 -1.4222 0.226 -0.829 0.511 48 52 64
-2.1833 1.4479 -1.4193 0.294 -0.776 0.559 45 47 58
-2.1693 1.4502 -1.4122 -0.182 -0.811 0.556 20 23 29
-2.1625 1.4520 -1.4106 -0.193 -0.806 0.560 38 42 45
-1.3690 1.7295 -1.4125 0.476 -0.740 0.475 4 5 5
-1.3622 1.7306 -1.4090 -0.235 -0.820 0.521 2 2 2
-1.1026 1.9009 -1.6310 0.176 -0.558 0.811 16 13 7
-1.0942 1.9051 -1.6345 -0.010 -0.547 0.837 12 9 4
-1.0876 1.9049 -1.6273 0.555 -0.401 0.729 4 1 0
-1.0052 1.9266 -1.6077 0.118 -0.061 0.991 6 6 8
-0.9537 1.9516 -1.6272 0.696 -0.080 0.714 17 14 12
-0.9236 1.9720 -1.6549 0.687 -0.102 0.719 49 43 39
-0.9160 1.9741 -1.6533 0.511 -0.205 0.835 33 26 23
-0.8442 2.0103 -1.6845 0.593 -0.476 0.649 7 3 1
-0.8178 2.0224 -1.6926 0.054 -0.379 0.924 98 95 90
-0.8095 2.0256 -1.6933 0.353 -0.526 0.774 101 97 94
-0.7731 2.0434 -1.7075 0.299 -0.130 0.945 44 42 39
-0.7135 2.0669 -1.7151 0.509 -0.479 0.715 33 38 42
-0.1401 2.3271 -1.8825 -0.190 0.140 0.972 104 104 106
0.2421 2.4594 -1.8797 0.314 0.383 0.869 75 80 74
0.2510 2.4623 -1.8791 -0.086 0.268 0.959 60 65 62
0.2591 2.4642 -1.8766 -0.120 0.280 0.952 24 29 28
0.2702 2.4694 -1.8802 -0.192 0.219 0.957 42 47 47
0.3986 2.5062 -1.8581 -0.390 0.416 0.821 80 87 79
0.4006 2.5020 -1.8443 -0.682 0.393 0.617 48 55 47
0.4104 2.5057 -1.8451 -0.461 0.451 0.764 40 46 37
0.4194 2.5086 -1.8445 -0.196 0.492 0.848 66 71 65
-3.8332 1.2413 -2.4732 -0.102 0.482 0.870 240 238 244
-2.8261 1.3944 -1.9193 -0.214 -0.949 0.232 146 146 148
-2.8104 1.3978 -1.9135 -0.154 -0.861 0.486 149 147 152
-2.8022 1.3991 -1.9090 -0.151 -0.865 0.479 131 131 135
-2.7939 1.4002 -1.9039 -0.118 -0.868 0.481 128 129 133
-2.7131 1.4135 -1.8623 -0.120 -0.732 0.671 160 163 169
-2.7050 1.4147 -1.8578 -0.038 -0.714 0.699 137 140 144
-2.6974 1.4166 -1.8558 -0.063 -0.733 0.678 153 157 159
-2.6728 1.4197 -1.8405 -0.483 -0.752 0.449 151 156 158
-2.1609 1.4482 -1.4208 -0.118 -0.799 0.589 100 104 107
-1.7572 1.5895 -1.4227 0.236 -0.810 0.537 73 62 60
-1.3659 1.7255 -1.4216 0.287 -0.818 0.499 3 4 5
-1.3594 1.7254 -1.4151 -0.234 -0.835 0.497 1 2 1
-1.1574 1.8521 -1.5726 0.670 0.193 0.717 36 25 18
-1.0744 1.9071 -1.6457 0.456 -0.122 0.882 9 5 3
-1.0579 1.9143 -1.6497 0.508 -0.204 0.837 22 19 15
-1.0492 1.9188 -1.6538 0.508 -0.204 0.837 8 5 4
-1.0014 1.9222 -1.6167 0.200 -0.668 0.716 2 2 3
-0.8406 2.0050 -1.6917 0.593 -0.476 0.649 9 5 3
-0.8232 2.0127 -1.6962 -0.099 -0.384 0.918 13 8 6
-0.8155 2.0147 -1.6944 -0.091 -0.451 0.888 85 82 78
-0.7629 2.0380 -1.7083 0.311 -0.192 0.931 54 50 49
-0.7452 2.0459 -1.7131 0.411 -0.204 0.888 34 31 30
-0.7181 2.0585 -1.7220 0.442 -0.376 0.814 40 41 44
-0.7006 2.0658 -1.7254 0.268 -0.404 0.875 62 67 71
-0.6014 2.1096 -1.7511 0.072 -0.898 0.434 2 2 4
-0.5135 2.1253 -1.7096 0.547 0.429 0.719 0 0 0
-0.1287 2.3220 -1.8848 -0.352 0.110 0.930 96 96 96
0.2306 2.4497 -1.8916 -0.301 0.463 0.834 84 89 83
0.2410 2.4473 -1.8749 0.286 0.376 0.882 55 60 55
0.2501 2.4503 -1.8745 -0.107 0.274 0.956 100 105 102
0.2580 2.4521 -1.8718 -0.200 0.308 0.930 91 95 94
0.3986 2.4892 -1.8383 -0.682 0.393 0.617 105 110 103
-3.8168 1.2397 -2.4796 -0.432 -0.721 0.541 229 220 225
-3.8065 1.2409 -2.4730 -0.250 -0.838 0.484 185 158 159
-2.7686 1.3991 -1.9010 -0.119 -0.865 0.488 105 108 111
-2.7192 1.4059 -1.8718 -0.256 -0.745 0.616 166 169 174
-2.7029 1.4083 -1.8626 0.246 -0.846 0.474 168 171 174
-2.6881 1.4126 -1.8600 -0.105 -0.609 0.786 156 158 160
-2.6787 1.4119 -1.8490 -0.337 -0.722 0.605 143 146 149
-2.3996 1.4448 -1.6680 -0.133 -0.965 0.227 56 62 75
-1.8868 1.5370 -1.4249 0.099 -0.553 0.828 158 105 106
-1.8799 1.5392 -1.4242 0.125 -0.598 0.792 155 117 116
-1.8315 1.5544 -1.4195 0.395 -0.350 0.850 98 89 94
-1.7618 1.5830 -1.4319 0.430 -0.746 0.509 79 68 65
-1.7478 1.5881 -1.4325 0.284 -0.807 0.518 75 63 62
-1.3629 1.7209 -1.4293 0.253 -0.830 0.496 4 5 6
-1.3566 1.7205 -1.4220 -0.234 -0.835 0.497 1 1 1
-1.1042 1.8869 -1.6434 0.297 -0.746 0.596 9 4 1
-1.0562 1.9053 -1.6479 0.433 -0.273 0.859 21 16 12
-1.0394 1.9130 -1.6532 0.424 -0.299 0.855 1 0 0
-1.0309 1.9169 -1.6561 0.424 -0.299 0.855 0 0 0
-1.0199 1.9124 -1.6323 -0.300 -0.922 0.244 0 0 0
-1.0106 1.9181 -1.6393 -0.341 -0.926 0.162 0 0 0
-0.9868 1.9264 -1.6393 -0.216 -0.950 0.225 1 1 2
-0.9572 1.9333 -1.6297 0.659 -0.236 0.715 31 30 28
-0.9478 1.9389 -1.6364 0.649 -0.248 0.719 48 45 42
-0.9274 1.9533 -1.6569 0.704 -0.015 0.710 17 13 9
-0.8672 1.9803 -1.6740 0.643 0.074 0.762 107 102 98
-0.8278 2.0043 -1.7031 0.015 -0.227 0.974 24 19 15
-0.8029 2.0136 -1.7048 0.236 -0.319 0.918 106 101 98
-0.7879 2.0169 -1.6995 0.305 -0.387 0.870 27 23 21
-0.7133 2.0548 -1.7330 0.492 -0.270 0.827 24 25 28
-0.7064 2.0553 -1.7278 0.250 -0.404 0.880 15 17 21
-0.6977 2.0590 -1.7295 0.268 -0.404 0.875 87 91 95
-0.6386 2.0605 -1.6759 -0.951 -0.214 0.223 5 7 12
-0.5684 2.1089 -1.7434 0.168 -0.912 0.374 1 0 1
-0.4715 2.1470 -1.7557 0.400 0.310 0.862 0 0 0
-0.4250 2.1853 -1.8180 -0.544 0.139 0.827 0 0 0
0.2189 2.4328 -1.8839 -0.312 0.459 0.832 102 107 100
0.2274 2.4352 -1.8824 -0.310 0.458 0.833 109 114 108
0.2412 2.4366 -1.8727 0.173 0.217 0.961 31 36 32
-2.8367 1.3876 -1.9604 -0.213 -0.958 0.190 99 99 97
-2.8272 1.3874 -1.9505 -0.213 -0.958 0.190 100 100 99
-2.8176 1.3872 -1.9406 -0.177 -0.972 0.156 152 152 151
-2.8079 1.3868 -1.9299 -0.166 -0.974 0.152 181 181 180
-2.7254 1.3986 -1.8820 -0.239 -0.834 0.497 97 101 103
-2.7019 1.4033 -1.8721 0.238 -0.850 0.470 144 148 149
-2.6771 1.4063 -1.8561 -0.310 -0.719 0.622 137 140 143
-2.5967 1.4178 -1.8097 -0.539 0.030 0.841 138 143 146
-2.4689 1.4328 -1.7262 -0.561 -0.403 0.723 170 175 181
-1.3748 1.7102 -1.4345 -0.679 -0.678 0.282 50 50 52
-1.3604 1.7149 -1.4334 0.010 -0.714 0.701 3 4 3
-1.3539 1.7149 -1.4271 -0.224 -0.833 0.505 1 1 1
-1.1547 1.8487 -1.6101 0.566 -0.445 0.694 33 23 14
-1.1466 1.8523 -1.6122 0.566 -0.429 0.704 34 24 15
-1.1101 1.8759 -1.6432 0.333 -0.504 0.797 11 5 1
-1.0936 1.8831 -1.6474 0.405 -0.372 0.835 11 5 3
-1.0700 1.8915 -1.6479 0.356 -0.268 0.895 19 14 8
-0.9250 1.9459 -1.6592 0.722 -0.291 0.628 25 20 17
-0.8552 1.9784 -1.6827 0.644 0.066 0.762 88 83 77
-0.8447 1.9857 -1.6928 0.615 0.088 0.784 51 46 40
-0.8342 1.9927 -1.7025 0.465 -0.087 0.881 63 58 52
-0.8254 1.9968 -1.7053 0.045 -0.223 0.974 76 71 64
-0.8175 1.9992 -1.7043 -0.080 -0.392 0.916 62 57 52
-0.8097 2.0013 -1.7027 -0.080 -0.392 0.916 48 43 40
-0.8020 2.0035 -1.7011 -0.080 -0.392 0.916 107 102 99
-0.7295 2.0379 -1.7273 0.503 -0.238 0.831 55 51 51
-0.7110 2.0470 -1.7348 0.505 -0.262 0.823 48 48 52
-0.6891 2.0508 -1.7241 -0.920 -0.074 0.386 62 66 72
-0.5877 2.0977 -1.7572 0.314 -0.378 0.871 3 3 5
-0.5709 2.1035 -1.7570 0.401 -0.687 0.606 13 13 13
-0.5287 2.1181 -1.7570 0.486 -0.204 0.850 0 0 0
-0.5149 2.1290 -1.7740 -0.125 -0.088 0.988 0 0 0
-0.5060 2.1324 -1.7751 -0.076 -0.080 0.994 1 1 0
-0.4974 2.1356 -1.7755 -0.088 -0.083 0.993 1 1 1
-0.4813 2.1402 -1.7726 -0.130 -0.615 0.777 0 0 0
-0.4462 2.1625 -1.8013 0.319 0.217 0.923 0 0 0
0.1803 2.4072 -1.8777 -0.003 0.236 0.972 83 88 82
0.1899 2.4109 -1.8786 -0.003 0.236 0.972 102 107 101
0.1975 2.4123 -1.8751 -0.131 0.155 0.979 115 120 114
0.2048 2.4135 -1.8712 -0.432 0.028 0.902 116 121 115
0.2167 2.4196 -1.8768 -0.274 0.460 0.845 108 113 106
0.2325 2.4231 -1.8713 -0.330 0.411 0.850 82 87 81
0.3446 2.4563 -1.8550 -0.305 0.364 0.880 110 112 108
0.3683 2.4618 -1.8470 -0.263 0.438 0.860 109 112 110
-2.8276 1.3838 -1.9662 -0.210 -0.956 0.204 94 95 90
-2.8184 1.3841 -1.9577 -0.173 -0.972 0.161 104 104 101
-2.8089 1.3839 -1.9477 -0.169 -0.973 0.158 113 113 111
-2.7495 1.3905 -1.9079 -0.241 -0.835 0.495 130 134 138
-2.7085 1.3964 -1.8841 0.011 -0.862 0.506 103 107 107
-2.7000 1.3972 -1.8778 0.153 -0.880 0.449 98 102 102
-2.6931 1.4001 -1.8793 -0.000 -0.889 0.458 99 102 104
-2.6852 1.4015 -1.8756 -0.019 -0.895 0.445 108 111 114
-2.6595 1.4031 -1.8546 -0.484 -0.736 0.472 136 140 143
-2.6354 1.4069 -1.8415 -0.378 -0.839 0.392 153 158 161
-2.5082 1.4253 -1.7680 0.219 -0.719 0.659 186 191 197
-2.4765 1.4291 -1.7475 -0.481 -0.717 0.505 157 162 166
-2.1752 1.4257 -1.4394 -0.127 -0.511 0.850 158 158 166
-2.1684 1.4275 -1.4378 -0.006 -0.659 0.752 153 154 160
-2.1614 1.4288 -1.4345 -0.002 -0.663 0.748 151 152 157
-1.3720 1.7050 -1.4405 -0.679 -0.678 0.282 51 51 53
-1.3650 1.7066 -1.4382 -0.160 -0.719 0.676 3 4 5
-1.3577 1.7094 -1.4390 0.010 -0.714 0.701 3 4 3
-1.1766 1.8307 -1.6056 0.670 -0.132 0.730 40 29 21
-1.1514 1.8437 -1.6178 0.566 -0.408 0.717 35 23 14
-1.1082 1.8675 -1.6427 0.369 -0.386 0.846 19 11 6
-1.0756 1.8812 -1.6494 0.103 -0.159 0.982 23 16 9
-1.0681 1.8830 -1.6474 0.135 -0.165 0.977 21 15 7
-1.0450 1.8900 -1.6445 0.236 -0.417 0.878 13 8 7
-1.0370 1.8931 -1.6454 0.225 -0.411 0.884 2 1 0
-1.0085 1.8977 -1.6303 0.325 -0.410 0.852 0 0 0
-0.9875 1.9139 -1.6557 -0.370 -0.875 0.311 0 0 0
-0.9217 1.9402 -1.6653 0.692 -0.336 0.639 46 41 39
-0.8534 1.9699 -1.6826 0.645 0.065 0.762 89 84 78
-0.8428 1.9772 -1.6929 0.618 0.082 0.782 58 53 47
-0.8238 1.9878 -1.7042 0.381 0.205 0.902 82 78 69
-0.8151 1.9915 -1.7062 -0.099 -0.389 0.916 68 63 56
-0.8074 1.9936 -1.7045 -0.099 -0.389 0.916 53 48 43
-0.7889 2.0030 -1.7131 0.145 -0.612 0.778 72 67 64
-0.6932 2.0431 -1.7326 -0.001 0.060 0.998 75 77 82
-0.6412 2.0438 -1.6831 0.022 -0.469 0.883 20 22 27
-0.5268 2.1097 -1.7578 0.618 -0.413 0.669 9 8 6
-0.5115 2.1226 -1.7793 0.051 -0.229 0.972 4 4 2
-0.4704 2.1352 -1.7746 -0.105 -0.522 0.847 0 0 0
-0.2688 2.2170 -1.8083 0.379 0.249 0.891 0 0 0
-0.1836 2.2762 -1.8928 -0.642 0.006 0.767 0 0 0
-0.0229 2.3234 -1.8682 -0.259 0.345 0.902 65 64 69
0.1800 2.3960 -1.8743 0.131 0.079 0.988 126 131 125
0.1890 2.3990 -1.8739 -0.015 0.179 0.984 111 116 110
0.1974 2.4013 -1.8722 -0.095 0.148 0.984 115 120 114
0.2049 2.4026 -1.8686 -0.438 0.027 0.898 112 117 110
0.2141 2.4059 -1.8687 -0.294 0.202 0.934 97 102 95
0.2230 2.4087 -1.8680 -0.280 0.466 0.839 97 102 96
0.2311 2.4108 -1.8658 -0.286 0.469 0.836 104 109 103
0.3160 2.4350 -1.8510 -0.152 0.302 0.941 115 119 116
0.3332 2.4402 -1.8486 -0.373 0.393 0.840 121 123 120
0.3417 2.4426 -1.8471 -0.370 0.398 0.839 115 117 114
0.3502 2.4450 -1.8456 -0.213 0.406 0.889 112 114 111
0.3676 2.4503 -1.8434 -0.184 0.416 0.890 99 101 99
0.3756 2.4522 -1.8410 -0.196 0.360 0.912 116 119 118
0.3845 2.4550 -1.8403 -0.367 0.314 0.875 107 111 110
-2.7820 1.3812 -1.9387 -0.157 -0.972 0.173 148 149 149
-2.7728 1.3813 -1.9298 -0.173 -0.965 0.195 180 182 183
-2.7651 1.3831 -1.9274 -0.136 -0.877 0.462 176 176 180
-2.7566 1.3841 -1.9217 -0.116 -0.862 0.494 162 162 166
-2.7482 1.3850 -1.9160 -0.137 -0.874 0.467 141 141 144
-2.7399 1.3862 -1.9113 -0.152 -0.876 0.457 141 142 144
-2.7317 1.3874 -1.9063 -0.152 -0.876 0.457 133 133 135
-2.7235 1.3886 -1.9019 -0.137 -0.874 0.467 123 123 125
-2.7154 1.3899 -1.8976 -0.049 -0.880 0.472 123 124 125
-2.7075 1.3914 -1.8940 -0.049 -0.880 0.472 111 114 116
-2.6995 1.3929 -1.8903 0.051 -0.878 0.476 120 123 124
-2.6913 1.3940 -1.8852 -0.124 -0.874 0.470 130 132 133
-2.6836 1.3957 -1.8825 -0.075 -0.947 0.313 112 113 115
-2.6748 1.3961 -1.8747 -0.070 -0.965 0.252 105 108 110
-2.6665 1.3970 -1.8693 -0.072 -0.962 0.264 133 137 138
-2.6572 1.3965 -1.8582 -0.453 -0.750 0.482 136 141 142
-2.6495 1.3983 -1.8559 -0.392 -0.873 0.292 100 106 107
-2.6412 1.3991 -1.8499 -0.329 -0.882 0.336 83 88 90
-2.6238 1.3996 -1.8340 -0.187 -0.865 0.465 158 163 166
-2.5924 1.4050 -1.8184 -0.025 -0.881 0.472 136 141 144
-2.5760 1.4066 -1.8065 -0.519 -0.634 0.573 155 160 164
-2.5358 1.4115 -1.7806 -0.054 -0.771 0.635 153 158 163
-2.5282 1.4130 -1.7772 -0.073 -0.772 0.631 160 165 169
-2.5207 1.4148 -1.7752 -0.054 -0.771 0.635 155 160 165
-2.5133 1.4168 -1.7734 -0.062 -0.778 0.625 175 180 185
-2.5064 1.4196 -1.7745 0.692 -0.316 0.649 153 158 163
-2.4252 1.4246 -1.7081 -0.454 -0.611 0.649 167 170 178
-2.4174 1.4253 -1.7024 -0.377 -0.686 0.622 182 186 195
-2.4095 1.4261 -1.6967 -0.387 -0.685 0.617 163 167 176
-2.4021 1.4277 -1.6941 -0.427 -0.638 0.641 154 159 166
-2.3942 1.4282 -1.6877 -0.405 -0.651 0.643 167 172 179
-2.2229 1.4120 -1.4707 -0.345 -0.541 0.767 182 185 192
-2.1877 1.4189 -1.4553 -0.149 -0.649 0.746 159 160 164
-2.1800 1.4182 -1.4456 -0.483 -0.583 0.653 133 134 139
-2.1657 1.4199 -1.4365 0.231 0.196 0.953 165 166 171
-1.7477 1.5696 -1.4500 0.273 -0.781 0.562 74 62 63
-1.3753 1.7013 -1.4572 -0.679 -0.678 0.282 82 82 84
-1.1653 1.8292 -1.6152 0.534 -0.401 0.744 75 64 57
-1.1485 1.8379 -1.6233 0.559 -0.416 0.717 41 28 20
-1.1299 1.8503 -1.6406 0.423 -0.202 0.883 34 25 17
-1.1066 1.8583 -1.6404 0.418 0.059 0.906 16 7 5
-1.0733 1.8735 -1.6508 0.106 -0.202 0.974 25 16 9
-1.0423 1.8834 -1.6484 0.236 -0.417 0.878 42 37 33
-1.0343 1.8865 -1.6493 0.264 -0.357 0.896 3 2 1
-1.0162 1.8967 -1.6605 0.392 -0.293 0.872 0 0 0
-0.9189 1.9335 -1.6693 0.696 -0.309 0.648 48 43 43
-0.8494 1.9653 -1.6915 0.754 -0.121 0.645 92 88 82
-0.8203 1.9821 -1.7106 -0.023 -0.284 0.959 63 59 49
-0.8122 1.9849 -1.7107 -0.032 -0.282 0.959 64 60 51
-0.8043 1.9873 -1.7097 -0.032 -0.282 0.959 56 51 45
-0.7940 1.9939 -1.7182 0.260 -0.310 0.914 100 95 91
-0.7524 2.0091 -1.7206 0.057 -0.444 0.894 82 77 74
-0.7261 2.0203 -1.7264 0.519 0.048 0.853 35 31 30
-0.6378 2.0378 -1.6889 0.024 -0.742 0.670 10 13 18
-0.5640 2.0815 -1.7409 0.671 -0.291 0.682 15 14 13
-0.5414 2.0959 -1.7595 0.664 -0.337 0.668 26 25 23
-0.5092 2.1145 -1.7810 0.418 -0.246 0.874 7 7 3
-0.4916 2.1213 -1.7828 -0.708 -0.704 0.056 51 49 45
-0.4754 2.1260 -1.7803 -0.649 -0.349 0.676 27 24 20
-0.4673 2.1284 -1.7790 -0.109 -0.510 0.853 18 15 13
-0.4497 2.1351 -1.7807 0.364 -0.803 0.472 2 1 1
-0.4091 2.1645 -1.8248 0.174 0.342 0.923 1 1 1
-0.3611 2.1772 -1.8134 -0.346 0.272 0.898 14 17 20
-0.2677 2.2074 -1.8071 0.479 0.026 0.877 0 0 0
-0.0403 2.3069 -1.8664 0.163 0.005 0.987 54 55 55
-0.0329 2.3081 -1.8626 0.034 0.101 0.994 46 46 48
-0.0246 2.3105 -1.8610 -0.242 0.249 0.938 51 51 54
-0.0163 2.3128 -1.8594 -0.232 0.345 0.909 90 88 94
-0.0086 2.3144 -1.8564 -0.075 0.296 0.952 71 69 74
0.1803 2.3854 -1.8721 -0.079 0.320 0.944 120 125 119
0.2059 2.3929 -1.8680 -0.255 0.120 0.959 89 94 88
0.2128 2.3936 -1.8634 -0.261 0.503 0.824 92 97 90
0.3061 2.4204 -1.8474 -0.045 0.213 0.976 117 119 116
0.3147 2.4230 -1.8462 0.051 0.084 0.995 122 124 120
0.3407 2.4309 -1.8429 -0.383 0.384 0.840 92 94 91
0.3486 2.4327 -1.8403 -0.375 0.387 0.843 87 91 88
0.3570 2.4350 -1.8386 -0.230 0.407 0.884 87 93 89
0.3659 2.4379 -1.8381 -0.207 0.402 0.892 84 89 85
0.3735 2.4394 -1.8349 -0.216 0.340 0.915 127 132 129
0.3818 2.4417 -1.8330 -0.391 0.112 0.913 127 131 130
-2.7922 1.3782 -1.9658 -0.155 -0.972 0.178 97 98 94
-2.7831 1.3784 -1.9573 -0.152 -0.971 0.183 102 104 101
-2.7738 1.3784 -1.9480 -0.162 -0.973 0.163 113 113 113
-2.7645 1.3785 -1.9390 -0.167 -0.972 0.167 154 154 155
-2.7552 1.3785 -1.9296 -0.157 -0.972 0.173 184 184 187
-2.6899 1.3886 -1.8935 -0.100 -0.871 0.482 117 120 121
-2.5495 1.4029 -1.7944 0.077 -0.923 0.376 109 114 119
-2.5268 1.4079 -1.7862 -0.053 -0.785 0.617 145 152 155
-2.5192 1.4095 -1.7831 -0.062 -0.781 0.621 116 122 126
-2.5118 1.4116 -1.7819 -0.072 -0.793 0.605 115 122 125
-2.5046 1.4138 -1.7810 0.172 -0.707 0.686 104 108 112
-2.4974 1.4161 -1.7803 0.640 -0.293 0.710 117 120 126
-2.4901 1.4183 -1.7795 0.401 -0.664 0.631 134 137 143
-2.4780 1.4117 -1.7484 -0.692 -0.434 0.577 141 144 150
-2.4304 1.4164 -1.7141 -0.156 -0.667 0.729 168 169 175
-1.9741 1.4818 -1.4466 -0.089 -0.063 0.994 161 121 113
-1.9190 1.4989 -1.4409 0.287 -0.356 0.889 118 107 108
-1.8846 1.5110 -1.4415 0.045 -0.732 0.680 116 105 108
-1.7240 1.5749 -1.4652 0.554 -0.447 0.702 80 68 68
-1.3593 1.6967 -1.4521 -0.584 -0.798 0.150 32 31 35
-1.3523 1.6981 -1.4493 -0.228 -0.745 0.627 22 22 25
-1.3039 1.7081 -1.4297 -0.134 -0.621 0.772 1 1 2
-1.1623 1.8234 -1.6210 0.501 -0.316 0.806 75 64 58
-1.1279 1.8422 -1.6408 0.333 -0.083 0.939 36 27 19
-1.1217 1.8413 -1.6319 0.389 -0.079 0.918 26 19 13
-1.1129 1.8463 -1.6376 0.548 -0.245 0.800 19 11 8
-1.1037 1.8520 -1.6450 0.412 -0.178 0.894 14 4 3
-1.0463 1.8765 -1.6583 0.102 -0.114 0.988 60 52 44
-1.0386 1.8789 -1.6575 0.374 -0.147 0.916 39 33 27
-1.0309 1.8812 -1.6564 0.319 -0.385 0.866 4 2 1
-1.0149 1.8871 -1.6575 0.274 -0.167 0.947 0 0 1
-1.0066 1.8906 -1.6593 0.274 -0.167 0.947 0 0 0
-0.9407 1.9174 -1.6705 -0.590 0.527 0.611 22 18 17
-0.9159 1.9272 -1.6741 0.708 -0.263 0.655 47 42 41
-0.8353 1.9670 -1.7084 0.669 -0.210 0.713 69 65 60
-0.8179 1.9745 -1.7128 -0.023 -0.284 0.959 58 53 43
-0.8100 1.9769 -1.7118 -0.023 -0.284 0.959 55 50 40
-0.8019 1.9798 -1.7118 -0.032 -0.282 0.959 39 34 26
-0.7917 1.9860 -1.7197 0.251 -0.280 0.927 90 86 80
-0.7839 1.9883 -1.7184 0.213 -0.311 0.926 70 67 62
-0.7758 1.9909 -1.7179 0.348 -0.295 0.890 18 14 10
-0.7415 2.0047 -1.7235 0.276 -0.321 0.906 82 77 73
-0.6950 2.0276 -1.7432 0.482 0.264 0.836 72 73 76
-0.6761 2.0267 -1.7215 -0.784 -0.394 0.479 33 40 47
-0.6426 2.0289 -1.6945 -0.175 -0.701 0.691 34 37 41
-0.6342 2.0321 -1.6953 0.024 -0.742 0.670 23 26 30
-0.5273 2.0958 -1.7721 0.661 -0.321 0.679 5 5 3
-0.5166 2.1018 -1.7790 0.453 -0.277 0.848 7 6 3
-0.4846 2.1108 -1.7729 -0.690 -0.723 0.021 62 58 54
-0.4463 2.1285 -1.7857 0.362 -0.198 0.911 17 15 15
-0.4000 2.1568 -1.8212 -0.158 0.161 0.974 2 2 3
-0.0581 2.2899 -1.8634 0.163 0.005 0.987 68 68 70
-0.0484 2.2938 -1.8650 0.163 0.005 0.987 66 66 68
-0.0388 2.2977 -1.8666 0.163 0.005 0.987 60 61 63
-0.0312 2.2992 -1.8632 0.092 0.016 0.996 45 46 49
-0.0242 2.3000 -1.8586 -0.317 0.200 0.927 32 32 36
0.1534 2.3657 -1.8706 -0.200 0.343 0.918 87 92 86
0.1798 2.3740 -1.8683 -0.079 0.320 0.944 81 86 80
0.1889 2.3771 -1.8682 -0.422 0.450 0.787 66 71 65
0.1970 2.3792 -1.8659 -0.171 0.330 0.928 55 60 54
0.2061 2.3823 -1.8659 -0.127 0.317 0.940 47 52 46
0.2114 2.3813 -1.8577 -0.263 0.466 0.845 71 76 69
0.2199 2.3839 -1.8565 -0.256 0.469 0.845 128 133 127
0.2853 2.4009 -1.8404 0.135 -0.068 0.988 77 79 74
0.2961 2.4057 -1.8435 0.036 0.056 0.998 100 102 97
0.3233 2.4149 -1.8427 -0.486 0.172 0.857 82 84 79
0.3311 2.4166 -1.8399 -0.519 0.143 0.843 73 75 70
0.3382 2.4177 -1.8358 -0.540 0.245 0.805 48 50 47
0.3477 2.4211 -1.8362 -0.356 0.324 0.877 59 63 60
0.3647 2.4261 -1.8336 -0.212 0.402 0.891 105 110 106
-2.7824 1.3736 -1.9683 -0.200 -0.926 0.321 83 86 80
-2.7743 1.3751 -1.9647 -0.179 -0.965 0.192 99 102 96
-2.7652 1.3754 -1.9564 -0.154 -0.972 0.179 101 103 100
-2.5404 1.3993 -1.7998 0.063 -0.926 0.372 75 80 84
-2.5324 1.4002 -1.7943 0.057 -0.897 0.439 87 92 96
-2.5248 1.4019 -1.7917 0.057 -0.897 0.439 132 137 141
-2.5175 1.4040 -1.7905 0.063 -0.897 0.437 106 111 114
-2.5100 1.4058 -1.7880 0.063 -0.897 0.437 99 105 108
-2.5030 1.4084 -1.7886 0.300 -0.765 0.570 86 90 94
-2.4766 1.4067 -1.7572 -0.531 -0.755 0.386 134 138 142
-2.4698 1.4097 -1.7590 -0.389 -0.854 0.346 150 153 157
-1.9921 1.4661 -1.4426 0.150 -0.352 0.924 162 125 120
-1.9854 1.4693 -1.4452 0.122 -0.411 0.903 165 138 133
-1.9786 1.4726 -1.4479 0.143 -0.398 0.906 150 130 126
-1.9718 1.4746 -1.4469 0.364 -0.212 0.907 142 125 124
-1.9580 1.4787 -1.4449 -0.100 -0.105 0.989 138 129 127
-1.7780 1.5471 -1.4627 0.438 -0.737 0.514 77 67 66
-1.3874 1.7204 -1.5736 0.084 -0.754 0.652 71 73 77
-1.3806 1.7207 -1.5674 0.149 -0.525 0.838 76 77 81
-1.3560 1.6931 -1.4625 -0.352 -0.814 0.462 42 40 45
-1.3491 1.6943 -1.4593 -0.250 -0.834 0.491 35 34 38
-1.2139 1.7976 -1.6233 0.364 0.439 0.821 70 62 56
-1.1600 1.8161 -1.6228 0.574 -0.300 0.762 71 60 54
-1.1344 1.8296 -1.6365 0.556 -0.208 0.805 51 40 31
-1.1256 1.8347 -1.6423 0.333 -0.083 0.939 31 23 14
-1.1102 1.8397 -1.6414 0.550 -0.237 0.801 14 6 2
-1.0285 1.8738 -1.6585 0.232 -0.259 0.937 6 2 1
-1.0047 1.8822 -1.6589 0.237 -0.169 0.957 0 0 0
-0.9411 1.9046 -1.6599 0.347 -0.034 0.937 41 37 36
-0.8080 1.9687 -1.7124 -0.034 -0.302 0.953 63 57 47
-0.7998 1.9716 -1.7126 -0.006 -0.281 0.960 45 39 31
-0.7811 1.9812 -1.7219 0.374 -0.262 0.889 84 81 76
-0.7642 1.9878 -1.7240 0.436 -0.256 0.863 75 71 68
-0.7552 1.9920 -1.7270 0.071 -0.450 0.890 106 101 97
-0.7029 2.0138 -1.7378 0.296 0.183 0.937 100 100 101
-0.6842 2.0229 -1.7455 0.296 0.183 0.937 96 100 103
-0.5498 2.0705 -1.7485 0.585 -0.023 0.811 5 3 1
-0.5372 2.0795 -1.7620 0.574 0.008 0.819 5 3 1
-0.5154 2.0924 -1.7776 0.514 -0.129 0.848 5 2 1
-0.4607 2.1152 -1.7888 -0.052 -0.523 0.851 58 55 50
-0.4532 2.1167 -1.7857 0.577 -0.271 0.771 52 51 47
-0.2380 2.2068 -1.8312 0.426 0.195 0.883 0 0 0
-0.1617 2.2461 -1.8687 -0.135 0.305 0.943 97 99 96
-0.1526 2.2495 -1.8692 -0.087 0.248 0.965 103 105 100
-0.0918 2.2690 -1.8649 -0.083 -0.078 0.994 67 67 67
-0.0560 2.2814 -1.8648 0.141 -0.030 0.989 82 82 85
-0.0462 2.2855 -1.8669 0.133 -0.043 0.990 71 72 75
-0.0372 2.2886 -1.8668 0.163 0.005 0.987 66 68 71
-0.0298 2.2899 -1.8632 0.092 0.016 0.996 79 81 84
-0.0235 2.2899 -1.8569 -0.312 0.211 0.926 64 64 69
-0.0094 2.2988 -1.8687 -0.060 0.196 0.979 86 85 90
0.1707 2.3601 -1.8657 -0.107 0.347 0.932 82 87 82
0.1796 2.3630 -1.8651 -0.416 0.455 0.787 78 83 77
0.1872 2.3645 -1.8620 -0.416 0.455 0.787 59 64 58
0.1946 2.3659 -1.8584 -0.406 0.452 0.794 49 54 48
0.2176 2.3706 -1.8491 -0.254 0.469 0.846 120 125 120
0.2605 2.3835 -1.8433 -0.314 0.191 0.930 105 111 106
0.2702 2.3872 -1.8444 -0.006 -0.206 0.979 101 105 100
0.2778 2.3887 -1.8412 0.102 -0.268 0.958 109 111 107
0.2870 2.3919 -1.8412 0.102 -0.264 0.959 111 113 109
0.2980 2.3970 -1.8448 -0.113 -0.072 0.991 102 104 100
0.3074 2.4004 -1.8453 -0.114 0.288 0.951 110 112 108
0.3159 2.4028 -1.8439 -0.113 0.287 0.951 92 94 90
0.3250 2.4059 -1.8435 -0.479 0.345 0.807 89 91 86
-2.5471 1.3932 -1.8139 0.065 -0.929 0.364 134 137 142
-2.4575 1.4002 -1.7439 -0.236 -0.933 0.273 133 137 139
-1.9832 1.4642 -1.4517 0.072 -0.440 0.895 126 115 116
-1.9697 1.4698 -1.4543 0.281 -0.677 0.680 118 103 105
-1.9629 1.4727 -1.4559 0.259 -0.788 0.559 109 96 98
-1.9559 1.4747 -1.4548 0.292 -0.773 0.563 101 91 90
-1.9491 1.4769 -1.4544 0.352 -0.707 0.614 100 91 89
-1.9422 1.4795 -1.4549 0.204 -0.744 0.636 115 107 104
-1.9284 1.4834 -1.4524 0.047 -0.826 0.562 121 111 110
-1.3770 1.7177 -1.5804 0.472 -0.553 0.686 76 72 78
-1.3461 1.6894 -1.4664 -0.370 -0.845 0.385 31 29 34
-1.2986 1.6965 -1.4391 -0.114 -0.733 0.671 10 10 12
-1.1959 1.7963 -1.6271 0.199 0.396 0.896 78 70 61
-1.1316 1.8233 -1.6410 0.566 -0.226 0.793 44 33 24
-1.1234 1.8269 -1.6433 0.425 -0.187 0.886 26 18 10
-1.1071 1.8340 -1.6476 0.294 -0.006 0.956 14 7 1
-1.0107 1.8712 -1.6589 0.249 0.137 0.959 1 0 1
-1.0021 1.8753 -1.6622 0.252 0.153 0.956 0 0 0
-0.9211 1.9058 -1.6694 0.723 -0.402 0.562 55 51 50
-0.8087 1.9671 -1.7351 -0.417 -0.711 0.566 65 59 46
-0.8019 1.9675 -1.7296 -0.417 -0.711 0.566 80 73 63
-0.7967 1.9652 -1.7176 0.079 -0.489 0.869 60 53 45
-0.7869 1.9708 -1.7240 0.206 -0.127 0.970 64 59 52
-0.7615 1.9808 -1.7274 0.436 -0.256 0.863 92 87 83
-0.7524 1.9851 -1.7308 0.071 -0.450 0.890 89 84 80
-0.7445 1.9874 -1.7297 0.036 -0.430 0.902 84 79 75
-0.7365 1.9899 -1.7289 0.036 -0.430 0.902 109 104 100
-0.7013 2.0048 -1.7370 0.294 0.125 0.948 100 100 101
-0.6921 2.0092 -1.7403 0.296 0.183 0.937 92 94 97
-0.6859 2.0088 -1.7329 -0.438 -0.591 0.677 105 109 112
-0.6793 2.0090 -1.7269 -0.587 -0.561 0.584 87 91 95
-0.5908 2.0366 -1.7181 0.634 -0.095 0.767 4 3 3
-0.5691 2.0498 -1.7347 0.638 -0.105 0.763 17 13 10
-0.5244 2.0774 -1.7704 0.582 -0.020 0.813 9 6 3
-0.5136 2.0837 -1.7778 0.584 -0.044 0.811 9 6 3
-0.4499 2.1100 -1.7905 0.577 -0.271 0.771 37 36 32
-0.4274 2.1234 -1.8068 0.441 -0.065 0.895 28 28 26
-0.1705 2.2320 -1.8648 -0.144 0.350 0.926 50 52 49
-0.1616 2.2352 -1.8650 -0.113 0.288 0.951 89 91 88
-0.0654 2.2668 -1.8603 0.053 0.116 0.992 92 91 97
-0.0549 2.2717 -1.8641 0.160 0.061 0.985 90 90 94
-0.0451 2.2757 -1.8659 0.160 0.061 0.985 82 84 89
-0.0311 2.2775 -1.8568 0.148 0.116 0.982 106 110 113
0.1522 2.3427 -1.8623 -0.200 0.343 0.918 114 119 113
0.1600 2.3445 -1.8597 -0.094 0.460 0.883 119 124 118
0.1695 2.3481 -1.8605 -0.094 0.460 0.883 67 72 66
0.1853 2.3517 -1.8552 -0.406 0.435 0.804 73 78 72
0.2536 2.3719 -1.8453 -0.230 0.275 0.934 96 102 98
0.2620 2.3743 -1.8438 -0.140 0.267 0.954 108 113 110
0.2709 2.3772 -1.8433 -0.140 0.267 0.954 115 119 116
0.2798 2.3801 -1.8428 -0.140 0.267 0.954 116 118 115
0.2900 2.3844 -1.8448 -0.112 0.344 0.932 138 140 138
0.2978 2.3861 -1.8421 -0.167 0.271 0.948 108 110 108
0.3066 2.3889 -1.8413 -0.167 0.271 0.948 109 111 109
0.3149 2.3912 -1.8395 -0.355 0.314 0.881 62 64 62
0.3240 2.3943 -1.8394 -0.628 0.374 0.683 45 47 45
-1.9948 1.4545 -1.4588 0.196 -0.709 0.678 109 98 97
-1.9880 1.4570 -1.4592 0.215 -0.625 0.750 107 95 95
-1.9810 1.4580 -1.4549 0.072 -0.440 0.895 112 101 102
-1.9743 1.4615 -1.4584 0.296 -0.602 0.742 117 108 105
-1.9676 1.4650 -1.4618 0.274 -0.784 0.557 112 101 98
-1.9538 1.4698 -1.4620 0.289 -0.778 0.558 96 84 84
-1.9469 1.4721 -1.4619 0.369 -0.717 0.591 105 95 93
-1.9400 1.4740 -1.4604 0.207 -0.747 0.632 121 112 110
-1.3831 1.7050 -1.5744 -0.208 -0.274 0.939 90 85 87
-1.2959 1.6909 -1.4443 -0.286 -0.793 0.538 10 11 13
-1.1849 1.7940 -1.6348 0.524 0.623 0.580 76 67 61
-1.1545 1.8032 -1.6312 0.431 -0.169 0.887 38 29 22
-1.1134 1.8221 -1.6449 0.284 0.004 0.959 17 9 2
-1.0246 1.8573 -1.6585 0.227 -0.318 0.921 73 62 59
-1.0169 1.8597 -1.6575 0.246 -0.335 0.910 14 8 7
-1.0092 1.8620 -1.6565 0.221 -0.127 0.967 2 1 1
-0.9377 1.8872 -1.6580 0.241 0.053 0.969 56 50 50
-0.8453 1.9370 -1.7106 0.640 -0.270 0.719 127 122 118
-0.8205 1.9463 -1.7128 0.627 -0.128 0.768 62 54 43
-0.7920 1.9617 -1.7291 -0.398 -0.714 0.576 66 58 49
-0.7845 1.9633 -1.7262 0.222 -0.049 0.974 80 74 67
-0.7587 1.9738 -1.7309 0.436 -0.256 0.863 89 84 80
-0.7496 1.9782 -1.7346 0.299 -0.317 0.900 82 77 73
-0.7336 1.9830 -1.7327 -0.078 -0.448 0.891 114 110 105
-0.6997 1.9960 -1.7363 0.294 0.125 0.948 97 98 98
-0.6823 2.0031 -1.7396 0.197 0.172 0.965 74 78 81
-0.6759 2.0030 -1.7329 -0.681 -0.511 0.524 60 63 68
-0.6624 2.0040 -1.7222 -0.584 -0.553 0.594 39 46 54
-0.6421 2.0058 -1.7067 -0.474 -0.311 0.823 26 29 38
-0.6329 2.0100 -1.7098 0.195 0.121 0.973 22 25 33
-0.6240 2.0139 -1.7121 0.195 0.121 0.973 3 4 11
-0.5874 2.0305 -1.7238 0.652 -0.089 0.753 21 20 19
-0.5451 2.0549 -1.7526 0.662 -0.243 0.709 14 11 6
-0.5306 2.0666 -1.7722 0.577 -0.153 0.802 21 17 11
-0.4740 2.0922 -1.7902 -0.326 -0.030 0.945 83 77 70
-0.4465 2.1036 -1.7958 0.587 -0.285 0.758 55 53 48
-0.1693 2.2225 -1.8641 -0.095 0.341 0.935 44 46 43
-0.0900 2.2492 -1.8621 -0.376 0.044 0.925 71 71 74
-0.0804 2.2530 -1.8636 -0.365 0.054 0.929 91 90 95
-0.0545 2.2613 -1.8615 -0.018 0.338 0.941 95 95 99
-0.0465 2.2632 -1.8592 0.003 0.368 0.930 86 88 92
-0.0392 2.2645 -1.8554 -0.130 0.441 0.888 63 67 71
-0.0282 2.2699 -1.8602 -0.322 0.569 0.757 65 69 72
0.1194 2.3232 -1.8672 -0.256 0.245 0.935 119 124 121
0.1680 2.3357 -1.8545 -0.207 0.340 0.917 66 71 65
0.2550 2.3627 -1.8456 -0.617 0.166 0.769 79 84 80
0.2616 2.3632 -1.8405 -0.245 0.267 0.932 143 149 145
0.2795 2.3692 -1.8398 -0.140 0.267 0.954 102 104 101
0.2889 2.3726 -1.8402 -0.129 0.345 0.930 98 100 99
0.2977 2.3754 -1.8395 -0.229 0.326 0.917 96 98 97
0.3059 2.3775 -1.8375 -0.230 0.320 0.919 110 112 111
0.3138 2.3795 -1.8352 -0.388 0.355 0.850 59 61 60
0.3216 2.3813 -1.8325 -0.629 0.375 0.680 7 9 8
-1.9859 1.4515 -1.4647 0.242 -0.609 0.755 103 94 94
-1.9789 1.4533 -1.4630 0.282 -0.569 0.772 130 122 121
-1.9721 1.4560 -1.4638 0.296 -0.602 0.742 113 108 104
-1.4038 1.6876 -1.5695 -0.042 -0.469 0.882 147 103 107
-1.3954 1.6936 -1.5786 0.369 -0.413 0.833 145 105 106
-1.3880 1.6961 -1.5783 -0.197 -0.263 0.945 137 102 103
-1.3800 1.7003 -1.5827 0.046 -0.413 0.909 126 99 100
-1.3398 1.6810 -1.4845 -0.348 -0.839 0.418 40 39 38
-1.2935 1.6843 -1.4470 -0.471 -0.691 0.548 3 3 5
-1.1519 1.7966 -1.6349 0.417 -0.173 0.892 25 15 9
-1.1104 1.8161 -1.6503 0.253 -0.118 0.960 18 8 1
-1.0609 1.8378 -1.6641 0.213 -0.511 0.833 43 28 20
-1.0531 1.8404 -1.6638 0.195 -0.511 0.837 52 37 29
-1.0372 1.8462 -1.6645 0.176 -0.594 0.785 63 50 42
-1.0297 1.8481 -1.6626 0.169 -0.605 0.778 53 39 34
-1.0067 1.8550 -1.6595 0.168 -0.129 0.977 12 10 8
-0.9982 1.8590 -1.6626 0.194 -0.136 0.972 6 5 5
-0.9820 1.8650 -1.6641 -0.273 0.323 0.906 24 20 21
-0.9677 1.8676 -1.6571 -0.416 0.564 0.713 54 47 48
-0.9360 1.8785 -1.6570 0.059 0.343 0.938 63 57 57
-0.9266 1.8841 -1.6638 0.277 0.063 0.959 61 56 56
-0.8248 1.9383 -1.7206 0.258 0.263 0.929 84 76 70
-0.8178 1.9392 -1.7161 0.624 -0.120 0.772 62 53 43
-0.7892 1.9547 -1.7328 -0.404 -0.717 0.568 75 65 57
-0.7819 1.9561 -1.7293 0.205 -0.042 0.978 81 73 67
-0.7726 1.9607 -1.7335 0.329 -0.119 0.937 93 87 82
-0.7231 1.9782 -1.7347 -0.047 -0.424 0.904 109 106 101
-0.6897 1.9902 -1.7363 0.375 0.097 0.922 84 86 89
-0.6398 1.9980 -1.7085 -0.415 -0.613 0.672 30 33 42
-0.6315 2.0010 -1.7089 -0.114 -0.550 0.828 27 30 38
-0.6221 2.0055 -1.7126 0.325 -0.287 0.901 3 4 11
-0.6138 2.0084 -1.7127 0.338 -0.235 0.911 10 10 15
-0.5957 2.0165 -1.7181 0.676 -0.141 0.723 1 3 2
-0.5847 2.0233 -1.7269 0.652 -0.089 0.753 49 48 47
-0.5417 2.0486 -1.7579 0.662 -0.243 0.709 45 38 31
-0.5177 2.0645 -1.7807 0.550 -0.182 0.815 24 18 9
-0.4724 2.0833 -1.7899 -0.326 -0.030 0.945 69 62 54
-0.4432 2.0970 -1.8008 0.557 -0.384 0.736 96 94 89
-0.2161 2.1930 -1.8533 0.313 0.067 0.948 13 14 12
-0.1690 2.2119 -1.8610 0.070 0.199 0.977 52 54 51
-0.0809 2.2416 -1.8590 -0.381 0.017 0.924 76 75 81
-0.0733 2.2432 -1.8559 -0.381 0.017 0.924 86 86 91
-0.0656 2.2448 -1.8529 -0.116 -0.059 0.991 95 96 101
-0.0540 2.2509 -1.8592 -0.102 0.227 0.968 93 94 98
-0.0455 2.2535 -1.8582 -0.185 0.467 0.865 84 85 90
-0.0326 2.2540 -1.8464 -0.318 0.564 0.762 87 90 93
0.0232 2.2748 -1.8512 0.285 0.264 0.921 107 109 108
0.1205 2.3137 -1.8668 -0.115 0.277 0.954 99 103 101
0.1295 2.3168 -1.8667 -0.042 0.193 0.980 101 105 102
0.1588 2.3217 -1.8515 -0.209 0.237 0.949 121 125 120
0.1756 2.3266 -1.8486 -0.372 0.192 0.908 47 51 45
0.1840 2.3290 -1.8472 -0.347 0.178 0.921 49 53 46
0.2400 2.3491 -1.8498 -0.531 0.180 0.828 106 111 105
0.2484 2.3516 -1.8485 -0.617 0.166 0.769 79 84 78
0.2619 2.3530 -1.8388 -0.255 0.284 0.924 96 102 96
0.2703 2.3553 -1.8372 -0.255 0.284 0.924 101 105 101
0.2793 2.3584 -1.8369 -0.152 0.265 0.952 117 119 116
0.2883 2.3614 -1.8367 -0.114 0.263 0.958 116 118 117
0.2969 2.3639 -1.8355 -0.186 0.299 0.936 136 138 137
0.3054 2.3665 -1.8344 -0.220 0.331 0.917 130 132 131
0.3135 2.3686 -1.8323 -0.367 0.310 0.877 104 106 105
-1.3931 1.6863 -1.5801 0.149 -0.582 0.800 179 77 76
-1.3855 1.6895 -1.5816 0.108 -0.560 0.821 172 82 81
-1.3773 1.6943 -1.5875 0.326 -0.253 0.911 166 88 89
-1.3625 1.6988 -1.5859 0.235 -0.738 0.633 141 103 99
-1.2894 1.6826 -1.4624 -0.467 -0.687 0.557 9 10 12
-1.1487 1.7912 -1.6418 0.608 -0.179 0.773 21 12 7
-0.9959 1.8514 -1.6642 0.185 -0.132 0.974 63 58 58
-0.9809 1.8552 -1.6603 -0.273 0.323 0.906 65 59 60
-0.9593 1.8593 -1.6502 -0.458 0.424 0.781 66 59 62
-0.8235 1.9289 -1.7183 0.258 0.263 0.929 83 74 69
-0.8153 1.9319 -1.7188 0.516 0.213 0.830 57 47 39
-0.7809 1.9462 -1.7259 0.169 -0.216 0.962 69 60 55
-0.7376 1.9641 -1.7349 0.044 -0.317 0.947 89 84 80
-0.7293 1.9671 -1.7353 0.020 -0.362 0.932 106 103 98
-0.6869 1.9832 -1.7398 0.424 -0.100 0.900 97 98 101
-0.6774 1.9880 -1.7443 0.427 -0.111 0.897 73 76 80
-0.6700 1.9894 -1.7410 -0.684 -0.504 0.528 47 51 55
-0.6369 1.9913 -1.7128 -0.415 -0.594 0.689 24 27 36
-0.6293 1.9931 -1.7104 -0.133 -0.586 0.799 28 30 38
-0.6195 1.9984 -1.7158 0.325 -0.287 0.901 6 7 12
-0.6116 2.0007 -1.7146 0.370 -0.265 0.890 7 8 12
-0.6026 2.0046 -1.7170 0.573 -0.088 0.815 2 3 5
-0.5927 2.0097 -1.7222 0.676 -0.141 0.723 1 1 1
-0.5817 2.0165 -1.7311 0.650 -0.131 0.748 31 28 26
-0.5384 2.0422 -1.7632 0.662 -0.243 0.709 79 72 64
-0.5153 2.0568 -1.7830 0.558 -0.221 0.800 62 55 46
-0.5041 2.0636 -1.7917 0.504 -0.103 0.857 50 43 35
-0.4700 2.0754 -1.7919 -0.259 -0.002 0.966 61 54 46
-0.3526 2.1218 -1.8098 -0.163 -0.209 0.964 16 20 23
-0.2296 2.1733 -1.8368 0.496 -0.002 0.868 5 5 3
-0.0971 2.2264 -1.8592 -0.284 -0.255 0.924 67 65 68
-0.0894 2.2281 -1.8564 -0.284 -0.255 0.924 71 70 74
-0.0819 2.2296 -1.8530 -0.265 -0.285 0.921 75 74 79
-0.0741 2.2314 -1.8505 -0.263 -0.271 0.926 76 75 80
-0.0642 2.2356 -1.8528 -0.108 -0.074 0.991 88 89 93
-0.0530 2.2413 -1.8583 -0.081 0.196 0.977 103 104 108
-0.0465 2.2416 -1.8525 0.006 0.204 0.979 109 109 113
-0.0379 2.2442 -1.8516 -0.012 0.232 0.973 122 122 127
-0.0176 2.2531 -1.8572 -0.061 0.438 0.897 117 118 122
0.0021 2.2544 -1.8409 0.032 0.383 0.923 51 53 52
0.0232 2.2641 -1.8481 0.285 0.264 0.921 121 123 122
0.0452 2.2748 -1.8573 0.310 0.184 0.933 74 78 77
0.1198 2.3021 -1.8623 -0.225 0.111 0.968 89 93 92
0.1284 2.3048 -1.8614 0.103 -0.022 0.994 100 105 103
0.1599 2.3122 -1.8511 -0.219 0.239 0.946 113 115 111
0.1678 2.3141 -1.8486 -0.322 0.152 0.935 100 102 96
0.1758 2.3161 -1.8464 -0.372 0.192 0.908 86 89 82
0.1843 2.3187 -1.8452 -0.338 0.171 0.925 89 92 85
0.2022 2.3246 -1.8446 -0.277 -0.033 0.960 46 50 43
0.2536 2.3401 -1.8380 -0.262 0.190 0.946 87 92 85
0.2621 2.3426 -1.8368 -0.181 0.157 0.971 110 115 109
0.2707 2.3452 -1.8356 -0.181 0.157 0.971 117 122 118
0.2796 2.3481 -1.8352 -0.173 0.157 0.972 121 123 122
0.2880 2.3505 -1.8338 -0.114 0.263 0.958 116 118 117
0.2970 2.3535 -1.8335 -0.114 0.263 0.958 116 118 117
0.3053 2.3558 -1.8317 -0.155 0.273 0.949 106 108 107
0.3131 2.3576 -1.8291 -0.212 0.287 0.934 103 105 104
-2.0016 1.4300 -1.4647 0.645 -0.726 0.240 118 111 108
-1.9950 1.4341 -1.4703 0.642 -0.728 0.239 115 108 106
-1.3904 1.6804 -1.5853 0.161 -0.583 0.796 212 49 49
-1.3824 1.6848 -1.5900 0.459 -0.510 0.727 196 46 45
-1.3750 1.6871 -1.5893 0.477 -0.786 0.394 186 49 49
-1.3597 1.6934 -1.5924 0.229 -0.731 0.643 174 81 76
-1.3374 1.6802 -1.5299 -0.796 -0.604 -0.033 121 108 107
-1.2915 1.6993 -1.5398 -0.894 -0.197 0.403 20 21 23
-1.2860 1.6787 -1.4723 -0.611 -0.603 0.514 3 4 6
-1.1367 1.7911 -1.6553 0.595 -0.430 0.679 32 23 16
-1.0876 1.8122 -1.6679 0.040 -0.876 0.481 33 23 14
-1.0634 1.8216 -1.6713 0.281 -0.565 0.776 60 47 34
-1.0239 1.8355 -1.6721 0.220 -0.678 0.702 38 25 18
-0.9800 1.8451 -1.6555 -0.278 0.328 0.903 76 68 70
-0.9730 1.8460 -1.6510 -0.458 0.424 0.781 75 69 69
-0.8384 1.9140 -1.7161 -0.658 -0.353 0.665 122 116 111
-0.8219 1.9200 -1.7173 0.267 0.246 0.932 84 75 69
-0.8136 1.9231 -1.7179 0.529 0.052 0.847 62 51 44
-0.7766 1.9418 -1.7356 0.157 -0.690 0.707 68 58 54
-0.7691 1.9435 -1.7331 -0.148 -0.808 0.571 78 70 64
-0.7471 1.9477 -1.7230 0.224 -0.648 0.728 110 105 101
-0.6834 1.9773 -1.7460 0.433 -0.096 0.896 87 88 90
-0.6751 1.9802 -1.7462 0.423 -0.116 0.899 93 94 98
-0.6674 1.9821 -1.7439 -0.680 -0.480 0.554 43 46 50
-0.6553 1.9811 -1.7286 -0.594 -0.561 0.577 37 40 48
-0.6409 1.9836 -1.7212 -0.407 -0.428 0.807 6 8 16
-0.6339 1.9847 -1.7171 -0.407 -0.428 0.807 11 13 21
-0.6262 1.9866 -1.7150 -0.121 -0.578 0.807 15 17 23
-0.6167 1.9912 -1.7191 0.359 -0.318 0.878 3 3 8
-0.6088 1.9936 -1.7180 0.306 -0.291 0.906 1 1 4
-0.5350 2.0358 -1.7685 0.659 -0.284 0.696 73 66 57
-0.5227 2.0441 -1.7807 0.564 -0.223 0.795 76 69 59
-0.5125 2.0496 -1.7865 0.564 -0.223 0.795 77 70 61
-0.5021 2.0552 -1.7925 0.484 -0.243 0.841 48 41 33
-0.4667 2.0689 -1.7970 0.240 -0.282 0.929 58 51 43
-0.4562 2.0744 -1.8028 0.488 -0.315 0.814 50 44 38
-0.4473 2.0779 -1.8041 0.586 -0.277 0.762 51 47 41
-0.3487 2.1159 -1.8163 0.135 -0.411 0.902 22 26 29
-0.2271 2.1654 -1.8394 0.446 0.063 0.893 2 2 0
-0.0873 2.2197 -1.8580 -0.284 -0.255 0.924 82 80 84
-0.0715 2.2235 -1.8532 -0.219 -0.296 0.930 85 84 89
-0.0626 2.2266 -1.8532 -0.114 -0.090 0.989 109 108 113
-0.0526 2.2309 -1.8557 0.003 0.115 0.993 104 105 109
-0.0457 2.2316 -1.8509 0.011 0.213 0.977 134 134 139
-0.0335 2.2314 -1.8376 -0.403 0.157 0.901 155 154 159
0.0234 2.2536 -1.8453 0.258 0.165 0.952 102 104 103
0.0340 2.2584 -1.8490 0.258 0.165 0.952 99 101 100
0.0463 2.2653 -1.8567 0.241 0.245 0.939 109 111 110
0.0559 2.2689 -1.8579 0.264 0.363 0.894 106 109 108
0.0954 2.2851 -1.8655 -0.173 0.104 0.979 86 90 89
0.1044 2.2882 -1.8655 -0.250 0.128 0.960 111 115 114
0.1121 2.2898 -1.8624 -0.167 -0.001 0.986 101 105 104
0.1206 2.2923 -1.8613 -0.149 -0.020 0.989 125 129 128
0.1295 2.2953 -1.8609 0.261 0.046 0.964 118 122 120
0.1402 2.3001 -1.8643 0.176 -0.108 0.978 93 98 94
0.1560 2.3039 -1.8593 -0.003 -0.355 0.935 110 116 112
0.2407 2.3287 -1.8463 -0.592 0.235 0.771 103 108 101
0.2477 2.3297 -1.8420 -0.597 0.219 0.772 111 116 109
0.2585 2.3283 -1.8270 -0.364 0.385 0.848 131 136 130
0.2679 2.3317 -1.8275 -0.365 0.355 0.861 114 119 115
0.2761 2.3340 -1.8258 -0.240 0.484 0.842 104 106 105
0.2847 2.3367 -1.8249 -0.240 0.484 0.842 111 113 112
0.2937 2.3397 -1.8246 -0.073 0.436 0.897 92 94 93
0.3032 2.3431 -1.8253 -0.061 0.436 0.898 84 86 85
0.3127 2.3466 -1.8260 -0.062 0.440 0.896 108 110 109
0.3220 2.3500 -1.8263 -0.431 0.170 0.886 139 141 140
0.8570 2.4734 -1.6445 0.044 0.231 0.972 99 100 95
-2.0066 1.4243 -1.4772 0.620 -0.758 0.201 121 116 113
-1.9864 1.4342 -1.4861 0.255 -0.882 0.395 123 118 115
-1.9591 1.4453 -1.4910 0.416 -0.692 0.590 123 114 112
-1.9384 1.4537 -1.4951 0.412 -0.836 0.363 121 113 110
-1.4026 1.6696 -1.5909 0.449 -0.482 0.752 232 57 60
-1.3949 1.6730 -1.5933 0.449 -0.482 0.752 234 46 48
-1.3872 1.6763 -1.5952 0.523 -0.559 0.643 230 44 44
-1.3797 1.6789 -1.5953 0.543 -0.545 0.639 215 36 37
-1.3718 1.6828 -1.5989 0.433 -0.510 0.744 209 39 40
-1.3567 1.6882 -1.5994 0.229 -0.731 0.643 185 53 47
-1.2816 1.6775 -1.4894 -0.782 -0.279 0.557 1 2 4
-1.0686 1.8122 -1.6751 0.301 -0.628 0.718 79 69 57
-1.0526 1.8181 -1.6763 0.234 -0.663 0.711 92 78 67
-1.0134 1.8314 -1.6756 0.173 -0.508 0.844 37 26 18
-0.9995 1.8330 -1.6661 0.312 -0.485 0.817 87 79 77
-0.9916 1.8357 -1.6662 0.289 -0.495 0.819 85 76 77
-0.8441 1.9037 -1.7182 -0.674 -0.278 0.684 107 102 99
-0.8364 1.9059 -1.7168 -0.662 -0.361 0.657 114 107 104
-0.8290 1.9073 -1.7136 0.305 0.218 0.927 90 83 77
-0.8196 1.9123 -1.7190 0.387 0.136 0.912 79 70 65
-0.8123 1.9139 -1.7160 0.444 0.339 0.830 69 58 52
-0.7931 1.9244 -1.7277 0.350 0.389 0.852 88 75 67
-0.7561 1.9425 -1.7442 0.196 -0.128 0.972 57 50 44
-0.7476 1.9459 -1.7455 0.196 -0.128 0.972 62 55 51
-0.7385 1.9501 -1.7487 0.214 -0.216 0.953 111 104 100
-0.7037 1.9644 -1.7559 0.449 -0.218 0.866 106 102 99
-0.6805 1.9703 -1.7498 0.576 -0.507 0.641 75 75 77
-0.6645 1.9753 -1.7481 0.452 -0.682 0.575 66 67 71
-0.6513 1.9759 -1.7362 -0.702 -0.190 0.687 65 67 74
-0.6376 1.9774 -1.7266 -0.183 -0.494 0.850 12 13 19
-0.6302 1.9790 -1.7236 -0.168 -0.504 0.847 25 26 31
-0.6226 1.9809 -1.7215 -0.157 -0.567 0.809 22 23 27
-0.6135 1.9849 -1.7241 0.250 -0.329 0.911 2 2 6
-0.6048 1.9885 -1.7258 0.344 -0.563 0.752 1 1 3
-0.5872 1.9955 -1.7289 0.656 -0.143 0.741 2 2 2
-0.5319 2.0291 -1.7730 0.658 -0.293 0.694 23 16 8
-0.5199 2.0371 -1.7845 0.575 -0.141 0.806 42 35 25
-0.5095 2.0426 -1.7906 0.564 -0.223 0.795 68 61 52
-0.4996 2.0475 -1.7949 0.490 -0.252 0.834 32 25 17
-0.4631 2.0627 -1.8029 0.502 -0.326 0.801 59 52 44
-0.4531 2.0675 -1.8071 0.493 -0.313 0.812 66 59 54
-0.0609 2.2178 -1.8538 -0.114 -0.090 0.989 137 137 139
-0.0526 2.2201 -1.8523 -0.120 -0.069 0.990 108 108 112
-0.0323 2.2221 -1.8372 -0.346 -0.061 0.936 155 154 159
-0.0201 2.2289 -1.8450 -0.062 0.441 0.895 143 142 147
0.0294 2.2495 -1.8559 -0.509 0.088 0.856 93 95 94
0.0488 2.2572 -1.8590 0.299 0.138 0.944 125 127 126
0.0553 2.2576 -1.8536 0.221 0.391 0.894 119 121 120
0.0660 2.2626 -1.8574 0.058 0.378 0.924 85 88 87
0.0780 2.2689 -1.8641 -0.215 0.298 0.930 36 40 39
0.0866 2.2715 -1.8630 -0.210 0.303 0.930 50 54 53
0.1048 2.2778 -1.8632 -0.216 0.304 0.928 97 101 100
0.1128 2.2798 -1.8610 -0.201 0.265 0.943 123 127 126
0.1308 2.2859 -1.8607 0.288 0.075 0.955 102 106 105
0.2387 2.3222 -1.8583 -0.405 0.204 0.891 66 71 64
0.2680 2.3214 -1.8255 -0.385 0.338 0.859 82 86 83
0.2757 2.3231 -1.8227 -0.385 0.338 0.859 87 89 88
0.2868 2.3283 -1.8267 -0.301 0.398 0.867 71 73 72
0.2933 2.3287 -1.8214 -0.272 0.410 0.871 84 86 85
0.3032 2.3326 -1.8230 -0.080 0.376 0.923 95 97 96
0.3107 2.3342 -1.8199 0.006 0.430 0.903 100 102 101
0.3318 2.3433 -1.8253 0.056 0.431 0.901 134 136 135
0.3429 2.3484 -1.8292 0.048 0.430 0.901 118 120 119
0.8394 2.4579 -1.6447 -0.044 0.264 0.963 107 109 104
-2.6098 1.2881 -1.7166 0.232 0.732 0.640 86 87 82
-2.6042 1.2922 -1.7234 0.232 0.732 0.640 83 84 78
-1.9846 1.4311 -1.4992 0.240 -0.889 0.389 128 123 120
-1.9774 1.4317 -1.4935 0.488 -0.798 0.353 125 120 117
-1.7540 1.5180 -1.5227 0.220 -0.839 0.498 106 97 96
-1.4076 1.6603 -1.5940 0.396 -0.438 0.807 226 49 48
-1.4000 1.6635 -1.5955 0.445 -0.497 0.745 224 47 47
-1.3922 1.6672 -1.5987 0.451 -0.491 0.745 227 41 41
-1.3845 1.6703 -1.6001 0.423 -0.478 0.770 231 41 40
-1.3768 1.6736 -1.6023 0.423 -0.478 0.770 226 44 41
-1.3532 1.6847 -1.6113 -0.083 -0.452 0.888 186 49 44
-1.3460 1.6863 -1.6086 0.146 -0.449 0.882 154 37 36
-1.2959 1.6605 -1.4780 -0.198 -0.922 0.333 17 18 20
-1.2788 1.6719 -1.4949 -0.767 -0.198 0.610 12 13 15
-1.1380 1.7777 -1.6693 0.324 -0.810 0.489 12 8 4
-1.0654 1.8065 -1.6814 0.301 -0.628 0.718 42 32 24
-1.0418 1.8147 -1.6816 0.294 -0.558 0.776 92 74 66
-1.0260 1.8201 -1.6814 0.062 -0.539 0.840 85 67 56
-1.0026 1.8276 -1.6799 0.255 -0.427 0.868 64 54 47
-0.9946 1.8307 -1.6808 0.255 -0.427 0.868 77 68 65
-0.8557 1.8944 -1.7296 -0.671 -0.262 0.694 57 51 51
-0.8491 1.8946 -1.7232 -0.671 -0.262 0.694 135 130 128
-0.8184 1.9029 -1.7165 0.538 -0.217 0.814 92 83 78
-0.7535 1.9353 -1.7473 0.245 -0.264 0.933 59 51 45
-0.7454 1.9379 -1.7468 0.251 -0.303 0.919 64 57 53
-0.6799 1.9601 -1.7457 0.519 -0.484 0.705 64 64 65
-0.6704 1.9647 -1.7501 0.453 -0.584 0.673 89 89 91
-0.6612 1.9691 -1.7535 0.443 -0.668 0.597 59 60 64
-0.6522 1.9729 -1.7559 0.430 -0.687 0.585 25 27 33
-0.6494 1.9677 -1.7369 -0.707 -0.185 0.683 20 21 28
-0.5948 1.9827 -1.7257 0.572 -0.078 0.816 1 1 1
-0.5170 2.0300 -1.7882 0.574 -0.138 0.807 49 42 32
-0.5064 2.0358 -1.7949 0.382 -0.085 0.920 39 32 24
-0.4600 2.0558 -1.8072 0.484 -0.198 0.852 51 44 36
-0.4507 2.0598 -1.8096 0.496 -0.192 0.847 70 63 58
-0.2811 2.1159 -1.8034 0.074 -0.112 0.991 2 1 6
0.0114 2.2325 -1.8525 0.276 0.216 0.937 34 36 35
0.0220 2.2374 -1.8563 0.107 0.197 0.975 6 8 7
0.0306 2.2401 -1.8555 -0.571 -0.065 0.818 67 69 68
0.0392 2.2428 -1.8547 -0.564 -0.035 0.825 103 105 104
0.0482 2.2458 -1.8546 0.376 -0.333 0.865 127 128 128
0.0588 2.2507 -1.8583 0.237 -0.139 0.961 137 139 138
0.0685 2.2545 -1.8599 0.334 -0.061 0.941 108 110 109
0.1100 2.2662 -1.8520 -0.413 0.333 0.848 123 127 126
0.1310 2.2755 -1.8585 0.249 0.113 0.962 77 81 79
0.2127 2.3035 -1.8584 0.047 -0.119 0.992 124 126 121
0.2295 2.3084 -1.8556 0.026 -0.034 0.999 98 103 96
0.2377 2.3106 -1.8537 -0.404 0.212 0.890 72 77 70
0.2401 2.3068 -1.8399 -0.604 0.219 0.766 89 94 87
0.2473 2.3081 -1.8361 -0.592 0.232 0.772 118 123 116
0.2551 2.3099 -1.8335 -0.421 0.147 0.895 99 104 98
0.2636 2.3124 -1.8324 -0.426 0.120 0.897 76 81 75
0.2716 2.3144 -1.8301 -0.437 0.130 0.890 68 73 69
0.2765 2.3135 -1.8219 -0.515 0.087 0.853 58 60 59
-2.6000 1.2830 -1.7164 0.763 -0.340 0.549 89 90 84
-2.5945 1.2873 -1.7237 0.700 -0.267 0.662 86 87 80
-2.5889 1.2915 -1.7306 -0.087 -0.192 0.977 82 85 77
-1.3973 1.6576 -1.6010 0.445 -0.497 0.745 210 26 24
-1.3895 1.6611 -1.6034 0.445 -0.497 0.745 227 39 39
-1.3818 1.6645 -1.6057 0.445 -0.497 0.745 241 53 52
-1.3740 1.6678 -1.6078 0.422 -0.489 0.763 226 43 41
-1.2904 1.6623 -1.5033 0.243 -0.890 0.385 10 10 12
-1.2642 1.6805 -1.5315 -0.236 -0.886 0.400 4 4 6
-1.0692 1.8000 -1.6924 0.178 -0.801 0.572 14 3 2
-1.0151 1.8167 -1.6869 0.184 -0.233 0.955 88 75 66
-0.8999 1.8620 -1.7044 0.036 -0.173 0.984 70 64 63
-0.8918 1.8649 -1.7049 0.069 -0.084 0.994 68 62 62
-0.8765 1.8805 -1.7365 0.079 0.584 0.808 59 53 54
-0.8676 1.8847 -1.7399 0.130 0.639 0.759 46 40 41
-0.8646 1.8785 -1.7181 -0.278 0.222 0.935 30 24 27
-0.8395 1.8883 -1.7217 -0.697 0.060 0.714 62 57 54
-0.8176 1.8927 -1.7120 0.253 -0.447 0.858 100 91 87
-0.8093 1.8958 -1.7129 0.253 -0.447 0.858 67 58 51
-0.7992 1.9018 -1.7208 0.573 -0.046 0.818 77 67 63
-0.7610 1.9222 -1.7428 0.440 -0.294 0.849 79 68 65
-0.7520 1.9263 -1.7461 0.440 -0.294 0.849 54 46 41
-0.7331 1.9358 -1.7554 0.193 -0.274 0.942 76 71 67
-0.6887 1.9549 -1.7671 0.421 -0.211 0.882 115 114 110
-0.6800 1.9583 -1.7685 0.373 -0.369 0.851 94 93 91
-0.6765 1.9539 -1.7514 0.588 -0.104 0.802 68 68 68
-0.6679 1.9572 -1.7525 0.338 -0.093 0.937 58 58 59
-0.6343 1.9693 -1.7543 -0.562 -0.609 0.560 8 9 13
-0.6089 1.9695 -1.7280 -0.157 -0.674 0.722 6 7 9
-0.5921 1.9845 -1.7565 0.643 -0.067 0.763 0 1 2
-0.5823 1.9895 -1.7614 0.671 -0.142 0.727 1 1 1
-0.5331 2.0141 -1.7851 0.363 -0.007 0.932 27 19 14
-0.5139 2.0231 -1.7925 0.363 -0.007 0.932 55 48 39
-0.4672 2.0435 -1.8058 0.270 -0.246 0.931 63 54 47
-0.4568 2.0490 -1.8117 0.435 -0.182 0.882 41 32 25
-0.0208 2.2067 -1.8367 0.333 -0.643 0.690 144 143 146
-0.0114 2.2103 -1.8379 0.333 -0.643 0.690 114 115 117
-0.0028 2.2130 -1.8371 0.373 -0.615 0.695 62 63 65
0.0395 2.2324 -1.8522 -0.565 -0.020 0.825 95 97 94
0.0495 2.2366 -1.8545 0.303 -0.420 0.856 109 111 108
0.0607 2.2420 -1.8594 0.356 -0.351 0.866 130 132 129
0.0708 2.2464 -1.8621 0.350 -0.358 0.866 115 117 115
0.0786 2.2481 -1.8593 0.078 -0.086 0.993 111 113 112
0.1019 2.2535 -1.8512 -0.261 0.216 0.941 99 101 100
0.1181 2.2577 -1.8472 -0.432 0.291 0.854 87 91 90
0.1264 2.2600 -1.8457 -0.260 0.219 0.940 79 84 80
0.1427 2.2707 -1.8612 0.309 0.057 0.949 48 53 49
0.2146 2.2888 -1.8411 0.098 0.091 0.991 103 108 102
0.2378 2.3001 -1.8513 -0.379 0.211 0.901 119 124 117
0.2554 2.2997 -1.8317 -0.421 0.147 0.895 90 92 88
0.2638 2.3021 -1.8303 -0.437 0.122 0.891 86 88 85
0.2705 2.3029 -1.8257 -0.325 0.281 0.903 82 84 81
-2.5983 1.2774 -1.7229 0.771 -0.367 0.521 164 164 162
-2.5917 1.2802 -1.7245 0.702 -0.255 0.665 126 126 123
-2.5857 1.2837 -1.7288 0.701 -0.263 0.663 103 105 100
-1.9478 1.4535 -1.5794 0.338 -0.896 0.288 102 93 91
-1.8342 1.4775 -1.5332 0.413 -0.773 0.481 118 111 109
-1.4028 1.6465 -1.5988 0.383 -0.457 0.803 193 16 13
-1.3952 1.6495 -1.6002 0.353 -0.485 0.800 220 39 34
-1.3875 1.6527 -1.6020 0.396 -0.487 0.779 244 61 53
-1.3798 1.6560 -1.6040 0.447 -0.425 0.787 238 59 55
-1.3721 1.6594 -1.6061 0.386 -0.441 0.810 218 52 52
-1.3650 1.6607 -1.6028 0.319 -0.664 0.676 187 42 42
-1.3211 1.6537 -1.5350 -0.807 -0.589 -0.044 62 61 64
-1.3166 1.6481 -1.5128 -0.726 -0.687 -0.024 25 25 27
-1.2956 1.6526 -1.5046 -0.215 -0.883 0.418 12 11 15
-1.2890 1.6530 -1.4989 -0.148 -0.937 0.316 7 7 9
-1.2816 1.6557 -1.4995 -0.087 -0.908 0.410 2 2 4
-1.0831 1.7861 -1.6915 -0.125 -0.920 0.372 29 22 13
-1.0512 1.7979 -1.6941 0.086 -0.582 0.809 25 14 9
-1.0131 1.8087 -1.6871 0.122 -0.189 0.974 60 48 42
-0.9969 1.8148 -1.6889 0.221 -0.155 0.963 90 81 75
-0.8896 1.8572 -1.7065 0.291 -0.103 0.951 69 63 63
-0.8461 1.8765 -1.7201 -0.486 0.112 0.867 142 136 137
-0.8148 1.8859 -1.7160 0.241 -0.448 0.861 103 94 90
-0.8065 1.8890 -1.7167 0.241 -0.448 0.861 67 58 51
