ply
format ascii 1.0
comment PCL generated
obj_info is_cyberware_data 0
obj_info is_mesh 0
obj_info is_warped 0
obj_info is_interlaced 0
obj_info num_cols 46249
obj_info num_rows 1
obj_info echo_rgb_offset_x 0
obj_info echo_rgb_offset_y 0
obj_info echo_rgb_offset_z 0
obj_info echo_rgb_frontfocus 0.0
obj_info echo_rgb_backfocus 0.0
obj_info echo_rgb_pixelsize 0.0
obj_info echo_rgb_centerpixel 0
obj_info echo_frames 1
obj_info echo_lgincr 0.0
element vertex 839
property float x
property float y
property float z
property uchar red
property uchar green
property uchar blue
property float nx
property float ny
property float nz
property float curvature
end_header
9.01917 2.27314 3.44075 121 112 107 -0.163 0.663 0.73 0
9.02633 2.28107 3.44391 145 136 131 -0.146 0.817 0.558 0
9.04659 2.28752 3.43967 135 126 119 -0.167 0.661 0.731 0
9.05809 2.29496 3.4408 113 104 97 -0.161 0.582 0.797 0
9.0734 2.30214 3.43945 99 90 83 -0.03 0.805 0.592 0
9.0881 2.30935 3.43846 87 78 71 -0.03 0.805 0.592 0
7.72737 0.70412 2.7114 245 245 243 -0.358 0.25 0.9 0
7.73082 0.7122 2.71674 246 246 244 -0.674 0.243 0.697 0
7.74173 0.717807 2.7165 222 223 218 -0.695 0.293 0.656 0
7.74774 0.725136 2.7201 214 215 210 -0.671 0.248 0.699 0
7.76007 0.730459 2.71853 242 243 238 -0.722 0.222 0.655 0
7.81945 0.803303 2.75335 252 252 250 -0.321 -0.454 0.831 0
7.82903 0.809612 2.75412 251 251 249 -0.288 0.104 0.952 0
7.84118 0.815169 2.75315 244 244 242 0.308 -0.235 0.922 0
7.82917 0.827568 2.76973 221 221 218 -0.166 -0.194 0.967 0
7.8314 0.835924 2.77628 196 197 192 -0.17 -0.189 0.967 0
7.83474 0.843895 2.78143 196 197 192 -0.201 -0.147 0.969 0
7.83701 0.852347 2.78758 155 156 151 -0.449 0.427 0.785 0
7.8424 0.8597 2.79154 127 128 123 -0.256 0.316 0.914 0
7.84534 0.867914 2.79743 142 143 138 -0.175 0.37 0.912 0
7.85195 0.874991 2.80018 157 158 153 -0.175 0.37 0.912 0
7.85965 0.881814 2.80243 179 180 175 0.004 0.234 0.972 0
7.86524 0.889159 2.80627 222 223 218 0.092 0.206 0.974 0
7.86563 0.898125 2.81389 233 234 229 0.239 0.29 0.927 0
7.87163 0.905453 2.81749 217 218 213 0.146 0.302 0.942 0
7.87698 0.91302 2.82136 220 221 216 0.173 0.314 0.934 0
7.88308 0.920231 2.82466 238 239 234 0.173 0.277 0.945 0
7.88612 0.928328 2.83024 208 209 204 0.233 0.241 0.942 0
7.90471 0.932215 2.82477 184 185 180 -0.299 0.44 0.847 0
7.89823 0.942867 2.83714 205 207 201 0.01 0.361 0.933 0
7.91141 0.948383 2.83557 183 186 179 -0.547 0.049 0.836 0
7.91541 0.956117 2.84046 145 148 141 -0.539 0.104 0.836 0
7.92541 0.962409 2.84099 140 143 136 -0.539 0.097 0.837 0
7.94216 0.966906 2.83659 158 161 154 -0.272 0.476 0.836 0
7.96369 0.970237 2.82904 190 193 186 0.105 0.924 0.367 0
7.99886 0.987933 2.82724 204 207 200 0.745 0.359 0.563 0
7.99864 1.00569 2.84319 202 205 198 -0.534 0.19 0.824 0
8.00788 1.01234 2.84429 177 180 173 -0.472 -0.361 0.804 0
8.01005 1.02091 2.85074 111 114 107 -0.472 -0.361 0.804 0
8.01217 1.02916 2.85711 81 85 78 -0.472 -0.361 0.804 0
8.01424 1.03762 2.86337 107 112 105 -0.472 -0.361 0.804 0
8.01261 1.04699 2.87229 171 176 169 -0.466 -0.35 0.812 0
8.00577 1.05744 2.885 204 207 200 -0.328 -0.299 0.896 0
8.00783 1.0659 2.89127 213 216 209 -0.328 -0.299 0.896 0
8.02946 1.06934 2.8839 231 233 228 0.614 0.546 0.57 0
8.52036 1.95335 3.41881 177 178 172 -0.033 0.277 0.96 0
8.52905 1.96057 3.42084 155 156 150 -0.252 0.71 0.658 0
8.53127 1.9687 3.4269 150 151 145 -0.258 0.733 0.63 0
8.57326 1.97136 3.40886 153 154 149 0.028 0.865 0.501 0
8.58561 1.9781 3.40863 161 162 156 0.22 0.699 0.68 0
8.58133 1.98714 3.41873 163 164 158 0.222 0.423 0.878 0
8.58823 1.99476 3.42193 175 176 171 0.135 0.293 0.946 0
8.8231 2.16038 3.45202 153 145 134 -0.197 0.851 0.488 0
8.84309 2.16651 3.44782 146 138 127 -0.115 0.855 0.506 0
8.84015 2.17539 3.45689 148 140 129 0.071 0.477 0.876 0
8.87473 2.18862 3.45152 129 120 111 0.304 0.711 0.634 0
8.89343 2.19501 3.44795 116 107 98 0.266 0.728 0.631 0
8.90574 2.2022 3.4481 110 101 93 0.327 0.617 0.716 0
8.91486 2.20963 3.45038 108 99 92 -0.231 0.801 0.552 0
8.92986 2.21671 3.44896 125 116 109 -0.235 0.798 0.555 0
8.94908 2.2232 3.44533 143 134 127 -0.244 0.703 0.668 0
9.04887 2.28133 3.44733 133 124 118 -0.146 0.817 0.558 0
9.06713 2.28818 3.44438 105 96 89 0.078 0.837 0.542 0
9.0827 2.29514 3.44301 93 84 77 0.078 0.837 0.542 0
7.72805 0.699297 2.72048 236 236 234 -0.227 0.339 0.913 0
7.73477 0.706484 2.72342 230 230 228 -0.227 0.339 0.913 0
7.74144 0.713348 2.72627 216 217 212 -0.227 0.339 0.913 0
7.74816 0.720534 2.7292 223 224 219 -0.227 0.339 0.913 0
7.81877 0.789878 2.75549 249 249 247 -0.673 -0.386 0.631 0
7.81706 0.799366 2.76471 248 248 246 -0.239 -0.295 0.925 0
7.81841 0.807968 2.77164 238 238 236 -0.204 -0.28 0.938 0
7.82083 0.816089 2.77759 234 234 231 -0.187 -0.278 0.942 0
7.83062 0.82239 2.77824 215 215 212 -0.168 -0.311 0.935 0
7.83268 0.83085 2.78451 196 197 192 -0.169 -0.239 0.956 0
7.83173 0.839983 2.79316 176 177 172 -0.37 0.332 0.868 0
7.83912 0.846931 2.79583 122 123 118 -0.449 0.427 0.785 0
7.84543 0.854134 2.79901 101 102 97 -0.256 0.316 0.914 0
7.8496 0.862072 2.80368 112 113 108 -0.153 0.29 0.945 0
7.85739 0.868778 2.80562 124 125 120 -0.177 0.263 0.948 0
7.86416 0.875752 2.80866 174 175 170 0.004 0.234 0.972 0
7.8692 0.883443 2.81295 219 220 215 0.066 0.197 0.978 0
7.87203 0.891548 2.81865 219 220 215 0.239 0.29 0.927 0
7.87624 0.899273 2.82342 203 204 199 0.14 0.304 0.942 0
7.88297 0.90646 2.82635 218 219 214 0.173 0.314 0.934 0
7.88877 0.913797 2.83008 241 242 237 0.177 0.285 0.942 0
7.89252 0.921751 2.83499 229 230 225 0.233 0.241 0.942 0
7.89694 0.929468 2.83964 194 195 190 0.233 0.241 0.942 0
7.90392 0.936433 2.84256 189 191 186 0.011 0.352 0.936 0
7.90389 0.945415 2.85042 194 196 191 -0.311 -0.149 0.939 0
7.90851 0.953123 2.85495 173 176 169 -0.3 -0.148 0.942 0
7.92813 0.956743 2.84839 175 178 171 -0.229 0.542 0.808 0
7.96244 0.956625 2.83165 199 202 195 0.111 0.912 0.394 0
7.98255 0.969319 2.83289 183 186 179 0.12 0.962 0.247 0
7.96613 0.982544 2.85229 189 192 185 -0.732 0.122 0.671 0
7.98594 0.995363 2.85396 211 214 207 -0.73 0.158 0.665 0
7.99522 1.0018 2.85516 194 197 190 -0.729 0.124 0.673 0
8.00312 1.00861 2.85728 151 154 147 -0.729 0.124 0.673 0
8.01005 1.01579 2.8601 96 99 92 -0.467 -0.372 0.802 0
8.0135 1.02387 2.86544 87 90 83 -0.471 -0.368 0.802 0
8.01209 1.03323 2.87423 129 133 126 -0.472 -0.361 0.804 0
8.01164 1.04223 2.88234 184 188 181 -0.465 -0.356 0.811 0
7.99917 1.05432 2.89907 196 199 192 -0.409 -0.232 0.882 0
8.00379 1.06203 2.9036 207 209 203 -0.326 -0.302 0.896 0
8.01307 1.06847 2.9048 217 219 214 -0.248 -0.057 0.967 0
8.13406 1.25197 3.00647 158 159 153 -0.348 0.118 0.93 0
8.25082 1.3582 3.04269 162 163 157 0.46 0.823 0.332 0
8.46907 1.86226 3.37772 163 164 156 0.649 -0.079 0.757 0
8.49092 1.90129 3.40148 150 151 143 -0.29 0.47 0.834 0
8.52971 1.95499 3.42945 143 144 138 -0.237 0.711 0.662 0
8.52836 1.96347 3.43747 146 147 141 0.324 0.812 0.486 0
8.5898 1.97194 3.4148 208 209 204 -0.556 -0.127 0.821 0
8.58985 1.98027 3.42238 222 223 218 -0.434 -0.224 0.873 0
8.59309 1.98836 3.42784 235 236 231 -0.434 -0.224 0.873 0
8.81365 2.1472 3.45905 159 153 141 -0.187 0.905 0.382 0
8.82987 2.15369 3.45693 155 147 136 -0.192 0.847 0.495 0
8.84754 2.16013 3.45396 150 142 131 -0.192 0.847 0.495 0
8.8512 2.1682 3.45918 144 136 125 0.1 0.475 0.874 0
8.88659 2.17285 3.44585 131 123 112 0.313 0.729 0.609 0
8.89798 2.18019 3.44679 117 108 99 0.313 0.729 0.609 0
8.90741 2.1875 3.44864 106 97 88 0.269 0.73 0.628 0
8.91586 2.19516 3.45118 100 91 82 0.327 0.617 0.716 0
8.92452 2.20282 3.4536 107 98 91 -0.279 0.776 0.566 0
8.93447 2.21022 3.45539 135 126 118 -0.202 0.797 0.57 0
8.95013 2.21706 3.45371 147 138 131 -0.218 0.69 0.69 0
8.96162 2.22428 3.45435 140 131 124 -0.192 0.734 0.652 0
7.73103 0.693945 2.72785 219 220 217 -0.215 0.444 0.87 0
7.80256 0.780889 2.76917 242 243 240 -0.666 -0.393 0.634 0
7.81459 0.786338 2.76802 245 245 242 -0.659 0.01 0.752 0
7.82346 0.792789 2.76946 233 234 231 -0.668 0.017 0.744 0
7.82195 0.802268 2.77856 213 214 211 -0.188 -0.278 0.942 0
7.82381 0.810737 2.78495 214 214 211 -0.188 -0.278 0.942 0
7.82879 0.818107 2.78915 208 209 204 -0.174 -0.305 0.937 0
7.83147 0.826542 2.79506 189 190 185 -0.189 -0.079 0.979 0
7.83409 0.834655 2.80088 139 140 135 -0.37 0.332 0.868 0
7.84087 0.841629 2.80392 97 98 93 -0.449 0.427 0.785 0
7.84662 0.849178 2.80754 92 93 88 -0.256 0.299 0.919 0
7.85314 0.856373 2.8106 89 90 85 -0.256 0.299 0.919 0
7.85904 0.863592 2.81402 106 107 102 -0.163 0.274 0.948 0
7.86867 0.869689 2.81489 180 181 176 0.004 0.234 0.972 0
7.87484 0.877222 2.81827 216 217 212 0.023 0.228 0.973 0
7.87981 0.884591 2.82247 205 206 201 0.023 0.228 0.973 0
7.88474 0.892174 2.82658 193 194 189 0.013 0.417 0.909 0
7.89147 0.899361 2.82951 217 218 214 0.013 0.417 0.909 0
7.89706 0.906706 2.83336 242 243 238 0.175 0.211 0.962 0
7.8998 0.914928 2.83936 235 236 231 0.201 0.183 0.962 0
7.90421 0.922645 2.84401 218 219 214 0.136 0.261 0.956 0
7.91053 0.929848 2.84719 190 191 187 0.007 0.373 0.928 0
7.92421 0.93523 2.84507 195 197 192 -0.302 0.187 0.935 0
7.90698 0.948714 2.86544 206 208 203 -0.301 0.184 0.936 0
7.94119 0.948487 2.84852 213 215 210 0.061 0.89 0.452 0
7.99466 0.997025 2.86496 165 168 161 -0.719 0.213 0.662 0
8.00067 1.00435 2.86856 136 139 132 -0.729 0.124 0.673 0
8.00852 1.01138 2.87059 126 129 122 -0.729 0.124 0.673 0
8.01525 1.01857 2.87352 142 145 138 -0.236 -0.334 0.913 0
8.01685 1.02695 2.88044 168 171 164 -0.236 -0.334 0.913 0
8.0076 1.03836 2.89467 190 192 186 -0.491 -0.329 0.806 0
7.99861 1.04955 2.90887 194 197 191 -0.409 -0.232 0.882 0
8.00503 1.05686 2.91223 205 207 202 -0.327 -0.295 0.898 0
8.13332 1.23822 3.00853 105 106 100 -0.364 0.181 0.914 0
8.47327 1.82215 3.35446 57 59 48 0.631 -0.117 0.767 0
8.47265 1.83072 3.3623 49 51 40 0.592 -0.08 0.802 0
8.47316 1.83912 3.36923 61 63 52 0.618 -0.103 0.779 0
8.49636 1.89507 3.40692 148 149 140 0.172 0.448 0.877 0
8.5034 1.90236 3.40992 168 169 161 -0.073 0.28 0.957 0
8.50926 1.91002 3.41372 213 214 206 0.18 0.119 0.976 0
8.52767 1.94951 3.43963 152 153 147 0.392 0.512 0.764 0
8.82104 2.14048 3.4636 165 159 147 -0.187 0.905 0.382 0
8.83891 2.14691 3.46052 159 151 140 -0.164 0.869 0.467 0
8.85385 2.15367 3.45902 148 140 129 -0.192 0.847 0.495 0
8.86023 2.16142 3.46277 132 124 113 -0.393 0.504 0.769 0
8.91114 2.16417 3.4405 115 107 96 0.311 0.73 0.608 0
8.91665 2.17216 3.44463 102 93 84 0.289 0.489 0.823 0
8.92042 2.18035 3.45003 91 82 73 0.105 0.397 0.912 0
8.92325 2.18845 3.45573 101 92 83 -0.263 0.237 0.935 0
8.92722 2.19662 3.46101 126 117 108 -0.288 0.771 0.567 0
8.93912 2.20383 3.46141 144 135 126 -0.211 0.793 0.572 0
8.94907 2.21122 3.4632 143 134 127 0.114 0.725 0.679 0
8.95855 2.21885 3.46514 123 114 107 0.116 0.722 0.682 0
8.97153 2.2258 3.46503 101 92 85 0.123 0.719 0.684 0
9.2589 2.35249 3.43575 108 98 87 -0.401 0.816 0.417 0
7.80916 0.774304 2.77381 217 219 214 -0.702 0.016 0.712 0
7.81834 0.78063 2.77482 231 233 228 -0.699 0.011 0.716 0
7.83441 0.78483 2.7707 229 231 226 -0.326 -0.457 0.828 0
7.82656 0.796088 2.78449 208 210 205 -0.387 -0.412 0.825 0
7.82325 0.805964 2.79475 179 181 176 -0.081 -0.175 0.981 0
7.82997 0.813151 2.79769 177 178 173 -0.174 -0.305 0.937 0
7.83363 0.821222 2.80291 176 177 172 -0.185 -0.069 0.98 0
7.83625 0.829336 2.80873 122 123 118 -0.37 0.332 0.868 0
7.84374 0.836167 2.8111 83 84 79 -0.427 0.443 0.788 0
7.84954 0.843504 2.81482 91 92 87 -0.256 0.299 0.919 0
7.85565 0.850715 2.81812 94 95 90 -0.182 0.225 0.957 0
7.86145 0.858052 2.82184 117 118 113 -0.182 0.225 0.957 0
7.86894 0.864883 2.82421 186 187 182 -0.205 -0.022 0.979 0
7.87331 0.872812 2.82876 206 207 202 -0.187 -0.033 0.982 0
7.8787 0.880166 2.83272 191 191 187 -0.182 -0.037 0.983 0
7.88583 0.887335 2.83542 190 190 188 -0.329 0.284 0.901 0
7.89429 0.893803 2.8371 220 220 218 -0.297 0.329 0.896 0
7.90367 0.900121 2.83799 244 244 241 0.043 0.424 0.904 0
7.90553 0.908589 2.84438 239 240 235 0.201 0.183 0.962 0
7.90985 0.916423 2.84933 227 227 225 0.201 0.183 0.962 0
7.91667 0.923492 2.85197 205 205 203 -0.244 0.175 0.954 0
7.9059 0.935306 2.86783 198 198 196 -0.415 -0.099 0.905 0
7.94939 0.941514 2.8521 220 222 217 0.674 0.237 0.7 0
7.99041 0.993163 2.87741 172 175 168 -0.729 0.124 0.673 0
7.99827 1.00019 2.87944 160 163 156 -0.729 0.124 0.673 0
8.00776 1.00662 2.88051 175 178 171 -0.182 -0.328 0.927 0
8.00911 1.01522 2.88745 193 195 189 -0.182 -0.328 0.927 0
8.01143 1.02346 2.8937 200 202 197 -0.164 -0.331 0.929 0
7.99557 1.03634 2.91265 191 193 188 -0.438 -0.219 0.872 0
7.99825 1.04477 2.91856 193 195 190 -0.409 -0.232 0.882 0
8.00482 1.05175 2.92171 204 206 201 -0.327 -0.295 0.898 0
8.47705 1.816 3.36087 55 57 46 0.477 0.113 0.872 0
8.48091 1.82406 3.36596 50 52 41 0.466 0.103 0.879 0
8.4825 1.83222 3.37239 59 61 50 0.341 0.035 0.939 0
8.49659 1.87242 3.40082 196 197 189 0.511 0.268 0.816 0
8.49638 1.88097 3.40842 159 161 151 0.285 0.541 0.791 0
8.50301 1.88828 3.41165 152 153 145 0.172 0.448 0.877 0
8.50749 1.89632 3.41639 170 171 163 -0.073 0.28 0.957 0
8.5348 1.93448 3.43672 157 158 152 0.277 0.16 0.947 0
8.53731 1.94248 3.44236 176 177 171 0.392 0.512 0.764 0
8.54998 1.94933 3.4422 212 213 208 0.175 0.869 0.462 0
8.57554 1.95404 3.43388 234 235 230 0.26 0.839 0.477 0
8.59186 1.96042 3.43145 247 248 243 -0.094 0.455 0.886 0
8.59263 1.96861 3.43836 240 241 236 -0.093 0.416 0.904 0
8.85016 2.13972 3.46269 155 147 136 -0.104 0.905 0.413 0
8.85999 2.147 3.46429 137 129 118 -0.192 0.847 0.495 0
8.87587 2.15384 3.4625 115 107 96 -0.189 0.85 0.493 0
8.90786 2.15874 3.4514 100 92 81 -0.34 0.563 0.753 0
8.91363 2.16652 3.45551 97 88 79 -0.177 0.007 0.984 0
8.91791 2.17456 3.46037 102 93 83 -0.177 0.007 0.984 0
8.91956 2.18304 3.46688 129 120 111 -0.188 0.009 0.982 0
8.92816 2.19038 3.46921 146 137 128 -0.257 0.301 0.918 0
8.93482 2.19844 3.47292 141 132 123 0.147 0.826 0.544 0
8.94945 2.20533 3.47185 127 118 111 0.166 0.614 0.772 0
8.95836 2.21277 3.47424 106 97 89 0.14 0.81 0.57 0
8.98016 2.21904 3.46886 95 86 79 0.123 0.719 0.684 0
9.23245 2.33143 3.44463 86 77 68 -0.358 0.835 0.417 0
9.24726 2.33874 3.44383 108 98 88 -0.387 0.818 0.426 0
9.26542 2.34571 3.44119 111 101 89 -0.409 0.807 0.425 0
7.73181 0.547957 2.62681 153 154 148 0.463 -0.116 0.879 0
7.73791 0.682554 2.7418 193 194 189 -0.222 0.436 0.872 0
7.79832 0.745613 2.76768 233 235 230 -0.229 -0.526 0.819 0
7.80534 0.752674 2.77019 216 218 213 -0.007 0.45 0.893 0
7.8117 0.759664 2.77346 205 207 202 0.039 0.446 0.894 0
7.80023 0.772155 2.78998 214 216 211 0.35 -0.205 0.914 0
7.8004 0.781129 2.79772 220 222 217 0.35 -0.205 0.914 0
7.82046 0.784292 2.79053 210 212 207 -0.329 -0.404 0.854 0
7.82227 0.792665 2.79732 172 174 169 -0.162 -0.03 0.986 0
7.82582 0.800628 2.80236 136 138 133 -0.081 -0.175 0.981 0
7.83121 0.807981 2.80632 156 158 153 -0.174 -0.305 0.937 0
7.83583 0.81569 2.81085 198 199 194 -0.185 -0.069 0.98 0
7.83841 0.824016 2.81658 164 165 160 -0.37 0.332 0.868 0
7.84569 0.830856 2.81907 92 93 88 -0.37 0.332 0.868 0
7.85099 0.838326 2.82333 98 99 94 -0.257 0.31 0.916 0
7.85739 0.845412 2.82621 113 114 109 -0.224 0.186 0.957 0
7.86432 0.85259 2.82902 147 148 143 -0.238 0.187 0.953 0
7.87012 0.859927 2.83274 195 196 191 -0.196 -0.031 0.98 0
7.87551 0.86728 2.8367 203 204 199 -0.321 -0.049 0.946 0
7.87968 0.875218 2.84138 193 193 191 -0.321 -0.049 0.946 0
7.88814 0.881686 2.84306 188 188 186 -0.329 0.284 0.901 0
7.89701 0.888137 2.8445 214 214 212 -0.297 0.329 0.896 0
7.90276 0.895687 2.84812 241 241 239 -0.115 0.146 0.983 0
7.91087 0.902493 2.85013 246 246 242 -0.295 0.197 0.935 0
7.9009 0.914048 2.86502 240 240 238 -0.472 -0.056 0.88 0
7.91909 0.917952 2.85979 231 231 229 -0.266 0.187 0.946 0
7.9105 0.929126 2.87376 221 221 219 -0.422 -0.107 0.9 0
7.90832 0.938843 2.88312 219 219 217 -0.452 -0.05 0.891 0
7.94883 0.936741 2.86191 222 223 219 0.591 0.296 0.751 0
7.99995 0.986023 2.87997 192 194 188 -0.115 0.652 0.749 0
8.00162 1.00327 2.89444 198 201 194 -0.17 -0.346 0.923 0
8.00327 1.01175 2.90095 202 205 199 -0.162 -0.327 0.931 0
8.00631 1.01984 2.90653 197 199 194 -0.168 -0.324 0.931 0
7.99675 1.03138 2.92118 191 193 188 -0.331 -0.103 0.938 0
8.00512 1.03797 2.92317 193 195 190 -0.324 -0.101 0.941 0
7.98301 1.05251 2.94651 206 208 203 0.166 -0.516 0.84 0
7.98056 1.06191 2.9559 221 223 218 0.213 -0.539 0.815 0
8.48777 1.81726 3.37058 57 59 48 0.295 0.118 0.948 0
8.48922 1.82574 3.37721 99 101 90 0.309 0.039 0.95 0
8.48911 1.83418 3.3845 153 154 146 0.298 0.012 0.955 0
8.49261 1.84204 3.38994 173 174 166 0.35 0.076 0.934 0
8.49615 1.85001 3.39498 205 206 198 0.341 0.069 0.937 0
8.50089 1.85782 3.39969 221 222 214 0.284 -0.019 0.959 0
8.50007 1.8664 3.40765 188 189 181 0.299 0.016 0.954 0
8.50361 1.87436 3.41269 155 156 148 0.2 0.361 0.911 0
8.50824 1.88207 3.41722 166 167 159 0.18 0.44 0.88 0
8.51631 1.88932 3.41961 183 184 176 0.172 0.448 0.877 0
8.53658 1.92019 3.43695 162 163 157 0.18 0.407 0.896 0
8.54203 1.92787 3.44099 158 159 153 0.176 0.404 0.898 0
8.55242 1.93481 3.44216 169 170 164 0.41 0.641 0.649 0
8.55829 1.94247 3.44596 187 189 184 0.444 0.616 0.65 0
8.57429 1.94875 3.44347 199 200 195 0.42 0.624 0.659 0
8.58277 1.95597 3.44563 213 214 209 0.42 0.624 0.659 0
8.58478 1.96411 3.45181 205 206 201 -0.104 0.364 0.926 0
8.88778 2.14641 3.4644 99 91 80 -0.082 0.897 0.434 0
8.9119 2.15237 3.45779 96 87 77 0.059 0.781 0.621 0
8.92143 2.15979 3.45982 101 92 83 -0.119 -0.009 0.993 0
8.92256 2.16817 3.46639 126 117 106 -0.107 -0.01 0.994 0
8.92633 2.17635 3.47179 147 138 129 -0.107 -0.01 0.994 0
8.93545 2.18378 3.47406 145 136 127 -0.046 -0.007 0.999 0
8.95353 2.1902 3.47085 128 119 110 0.15 0.858 0.491 0
8.95415 2.19872 3.47797 107 98 89 0.119 0.611 0.783 0
8.96802 2.20596 3.47746 96 87 78 0.142 0.814 0.563 0
8.98286 2.21284 3.47627 94 84 77 0.162 0.83 0.534 0
9.0025 2.21931 3.4724 89 80 73 0.062 0.888 0.457 0
9.01642 2.22633 3.47199 88 79 70 0.003 0.884 0.467 0
9.26805 2.33065 3.44104 108 97 87 -0.332 0.868 0.368 0
9.28765 2.33756 3.43755 110 98 85 -0.073 0.974 0.215 0
7.73585 0.66951 2.74487 213 214 209 -0.107 0.224 0.969 0
7.74119 0.677076 2.74874 208 209 204 -0.227 0.339 0.913 0
7.74848 0.683915 2.75123 223 224 219 -0.261 0.341 0.903 0
7.79267 0.706532 2.7498 214 215 210 -0.278 0.043 0.96 0
7.79364 0.724455 2.76493 250 251 246 0.03 0.207 0.978 0
7.79499 0.733057 2.77186 240 241 236 -0.232 -0.535 0.813 0
7.79399 0.742403 2.78042 239 240 235 -0.232 -0.535 0.813 0
7.8049 0.74801 2.78017 229 231 226 0.079 0.349 0.934 0
7.81351 0.754683 2.78164 204 206 201 -0.459 0.611 0.644 0
7.80524 0.765958 2.79566 190 192 187 0.324 -0.21 0.923 0
7.80563 0.774924 2.80328 183 185 180 0.324 -0.21 0.923 0
7.81076 0.782498 2.80727 167 169 164 0.078 -0.049 0.996 0
7.82494 0.787212 2.80463 124 126 121 -0.191 -0.026 0.981 0
7.82957 0.79492 2.80916 104 106 101 -0.071 -0.172 0.983 0
7.8324 0.803025 2.81486 142 144 139 -0.174 -0.305 0.937 0
7.83799 0.81037 2.8187 206 207 202 -0.185 -0.069 0.98 0
7.84077 0.818688 2.8243 197 198 193 -0.354 0.345 0.87 0
7.84806 0.825528 2.82679 119 120 115 -0.354 0.345 0.87 0
7.85365 0.832873 2.83063 119 120 115 -0.257 0.316 0.913 0
7.86176 0.839679 2.83264 152 153 148 -0.156 0.208 0.966 0
7.86745 0.846907 2.83618 190 191 186 -0.166 0.214 0.963 0
7.87263 0.854269 2.84026 201 202 197 -0.2 -0.029 0.979 0
7.8768 0.862207 2.84494 198 199 194 -0.319 -0.05 0.946 0
7.88112 0.870041 2.84989 206 206 204 -0.319 -0.05 0.946 0
7.88999 0.876492 2.85133 190 190 188 -0.329 0.271 0.904 0
7.89768 0.883315 2.85358 193 193 191 -0.33 0.291 0.898 0
7.9063 0.889987 2.85504 225 225 223 -0.115 0.146 0.983 0
7.89403 0.902072 2.87165 248 249 245 -0.464 -0.06 0.884 0
7.89866 0.909781 2.87618 250 250 248 -0.464 -0.06 0.884 0
7.91935 0.913146 2.86911 248 248 247 -0.439 -0.048 0.897 0
7.908 0.92508 2.88494 241 241 241 -0.406 -0.1 0.908 0
7.90848 0.933929 2.89226 219 219 217 -0.452 -0.05 0.891 0
7.95543 0.930157 2.86654 208 209 206 0.623 0.392 0.677 0
7.96446 0.936813 2.86776 204 206 201 0.616 0.364 0.699 0
7.96145 0.991144 2.91672 194 196 191 0.543 -0.156 0.825 0
7.95549 1.01043 2.93651 197 199 194 0.605 0.292 0.741 0
7.96297 1.01726 2.93888 206 208 203 0.616 0.28 0.736 0
7.9954 1.01766 2.92361 211 213 208 -0.313 0.072 0.947 0
7.99947 1.02571 2.92858 212 214 209 -0.279 0.088 0.956 0
8.00557 1.03293 2.93188 209 211 206 -0.261 0.06 0.963 0
7.98706 1.04667 2.95288 208 210 205 0.213 -0.539 0.815 0
7.98369 1.05623 2.96306 226 228 223 0.213 -0.539 0.815 0
7.98493 1.06472 2.96982 234 236 231 0.236 -0.552 0.8 0
8.48837 1.80334 3.37161 88 89 79 0.262 0.577 0.774 0
8.49532 1.81075 3.37491 97 99 88 0.312 0.11 0.944 0
8.49824 1.81874 3.38031 157 159 148 0.312 0.11 0.944 0
8.50025 1.82687 3.38649 170 171 163 0.304 0.113 0.946 0
8.50699 1.83429 3.38991 163 164 156 0.613 -0.047 0.789 0
8.50467 1.84313 3.39862 193 194 186 0.32 0.058 0.946 0
8.50508 1.85166 3.40586 203 204 196 0.156 -0.361 0.919 0
8.50668 1.85982 3.41228 170 171 163 0.223 0.058 0.973 0
8.50971 1.86791 3.41786 151 152 144 0.223 0.058 0.973 0
8.51558 1.87557 3.42167 165 166 158 0.198 0.345 0.917 0
8.52103 1.88325 3.42572 175 176 168 0.198 0.345 0.917 0
8.52565 1.89095 3.43025 177 178 170 0.329 0.038 0.944 0
8.52807 1.89908 3.43619 184 185 178 0.329 0.038 0.944 0
8.54247 1.91375 3.44225 169 170 164 0.176 0.404 0.898 0
8.54854 1.9214 3.44593 163 164 158 0.176 0.404 0.898 0
8.55512 1.92892 3.44907 157 158 152 -0.101 0.474 0.875 0
8.56099 1.93658 3.45288 166 168 163 -0.062 0.444 0.894 0
8.56876 1.94395 3.45569 184 185 180 0.068 0.022 0.997 0
8.56587 1.95261 3.46486 187 188 183 0.024 -0.003 1 0
8.57235 1.96024 3.4683 187 188 183 0.039 -0.012 0.999 0
8.59757 1.96529 3.46031 191 192 187 -0.07 -0.234 0.97 0
8.93144 2.15264 3.46272 117 107 98 0.006 -0.43 0.903 0
8.93562 2.16081 3.46787 145 135 125 -0.008 -0.434 0.901 0
8.93583 2.16934 3.47523 149 139 129 -0.044 -0.197 0.979 0
8.94201 2.1771 3.4791 135 125 116 -0.066 -0.188 0.98 0
8.94753 2.1851 3.48323 113 103 94 -0.056 -0.161 0.985 0
8.95685 2.19252 3.48538 98 88 79 -0.184 0.054 0.981 0
8.97679 2.19887 3.48108 97 87 78 0.135 0.826 0.548 0
8.98942 2.20615 3.4813 92 82 73 0.179 0.871 0.457 0
9.0137 2.21202 3.47497 86 75 69 0.062 0.888 0.457 0
9.02422 2.2196 3.4763 86 77 68 0.008 0.889 0.458 0
9.03885 2.22649 3.47522 101 92 83 -0.027 0.84 0.541 0
9.29917 2.33037 3.44018 103 91 78 0.049 0.974 0.222 0
9.3342 2.33603 3.42805 80 68 54 0.034 0.975 0.22 0
9.4023 2.35607 3.41265 67 54 36 -0.126 0.971 0.205 0
9.74879 2.40691 3.2895 74 54 30 0.144 0.956 0.257 0
7.69331 0.542041 2.66765 196 197 191 0.288 0.094 0.953 0
7.74249 0.653942 2.74164 209 210 205 -0.274 -0.559 0.782 0
7.73812 0.664299 2.7529 202 203 198 -0.292 0.248 0.924 0
7.74402 0.671518 2.75632 220 221 216 -0.297 0.259 0.919 0
7.75012 0.67873 2.75962 249 250 245 -0.307 0.247 0.919 0
7.75632 0.685824 2.76262 246 247 242 -0.307 0.247 0.919 0
7.78724 0.694499 2.75558 216 217 212 0.041 0.129 0.991 0
7.79141 0.702437 2.76026 229 230 225 0.072 0.17 0.983 0
7.79373 0.710675 2.76651 245 246 241 0.075 0.154 0.985 0
7.79794 0.718401 2.77128 250 251 246 0.075 0.154 0.985 0
7.79034 0.729747 2.78454 233 234 229 0.586 -0.043 0.809 0
7.79573 0.7371 2.7885 230 231 226 0.138 0.309 0.941 0
7.80322 0.743932 2.79087 231 233 228 -0.448 0.562 0.695 0
7.81587 0.749355 2.78936 190 192 187 -0.459 0.611 0.644 0
7.81702 0.757965 2.79642 147 149 144 -0.39 0.566 0.726 0
7.81106 0.76871 2.80873 149 151 146 0.324 -0.21 0.923 0
7.81486 0.776452 2.81374 145 147 142 0.078 -0.049 0.996 0
7.82731 0.781884 2.81235 104 106 101 -0.191 -0.026 0.981 0
7.83203 0.789475 2.81658 93 95 90 -0.071 -0.172 0.983 0
7.83665 0.797184 2.82111 126 128 123 0.262 -0.179 0.948 0
7.84015 0.805051 2.82655 190 191 186 -0.185 -0.069 0.98 0
7.84222 0.813511 2.83282 201 202 197 -0.241 0.47 0.849 0
7.85139 0.819837 2.83383 152 153 148 -0.153 0.47 0.869 0
7.85791 0.827031 2.83689 155 156 151 -0.241 0.47 0.849 0
7.86627 0.833616 2.83887 191 192 187 -0.208 0.457 0.865 0
7.87385 0.84033 2.84093 202 203 198 -0.208 0.457 0.865 0
7.87638 0.848561 2.84706 175 176 171 -0.161 -0.039 0.986 0
7.88054 0.856499 2.85173 162 163 158 -0.195 -0.036 0.98 0
7.88476 0.864224 2.85651 194 194 192 -0.171 -0.05 0.984 0
7.89204 0.871063 2.85899 202 202 200 -0.329 0.271 0.904 0
7.89994 0.877878 2.86112 186 186 184 -0.33 0.291 0.898 0
7.90288 0.886092 2.867 204 204 201 0.053 -0.254 0.966 0
7.89363 0.897504 2.88123 244 245 241 -0.467 0.092 0.879 0
7.89872 0.904984 2.88562 252 252 250 -0.464 -0.06 0.884 0
7.90323 0.912583 2.88997 250 250 250 -0.464 -0.06 0.884 0
7.90827 0.920274 2.89426 242 241 241 -0.406 -0.1 0.908 0
7.92231 0.925318 2.89182 210 210 209 -0.317 0.126 0.94 0
7.91997 0.934831 2.9014 196 197 194 -0.693 0.326 0.643 0
7.99145 0.978299 2.90487 193 195 190 -0.002 -0.841 0.541 0
7.96171 0.994881 2.93352 192 194 189 0.689 0.004 0.724 0
7.96378 1.00334 2.93979 212 214 209 0.59 0.318 0.743 0
7.96779 1.01107 2.94468 234 236 231 0.596 0.326 0.734 0
7.96914 1.01968 2.95162 243 245 240 0.383 0.439 0.813 0
7.984 1.02469 2.94869 244 246 241 0.345 0.525 0.778 0
7.9918 1.03162 2.95112 231 233 228 0.163 -0.331 0.929 0
7.99053 1.04065 2.95971 211 213 208 0.213 -0.539 0.815 0
7.98712 1.05042 2.9698 224 226 221 0.213 -0.539 0.815 0
8.12658 1.17549 3.01176 148 149 143 0.204 0.15 0.967 0
8.50069 1.81276 3.38774 175 176 169 0.284 -0.001 0.959 0
8.5029 1.82089 3.39381 161 162 155 0.284 -0.001 0.959 0
8.50486 1.82924 3.3999 158 159 151 0.307 0.01 0.952 0
8.50511 1.83756 3.40735 187 188 180 0.009 0.134 0.991 0
8.50666 1.84593 3.41368 189 190 182 0.139 -0.374 0.917 0
8.51402 1.85331 3.41674 164 165 157 0.009 0.134 0.991 0
8.5154 1.86148 3.42328 168 169 161 0.223 0.058 0.973 0
8.53334 1.88411 3.43438 165 166 158 0.221 -0.004 0.975 0
8.53447 1.8925 3.44095 175 176 170 0.191 -0.003 0.982 0
8.53838 1.90035 3.44614 182 183 177 0.189 -0.011 0.982 0
8.54496 1.90787 3.44928 176 177 171 -0.09 -0.158 0.983 0
8.55129 1.9153 3.45294 166 167 161 -0.034 -0.181 0.983 0
8.55998 1.92252 3.45497 161 162 156 -0.134 0.398 0.908 0
8.56178 1.93066 3.46128 177 179 174 0.027 -0.006 1 0
8.56523 1.93874 3.46662 200 201 196 0.027 -0.006 1 0
8.56312 1.94758 3.47521 196 197 192 0.001 -0.014 1 0
8.56651 1.95534 3.48046 190 191 187 0.001 -0.014 1 0
8.58117 1.96178 3.479 188 189 184 0.252 0.031 0.967 0
8.93945 2.15445 3.47438 146 136 126 -0.15 -0.074 0.986 0
8.94363 2.16261 3.47954 135 125 115 -0.142 -0.035 0.989 0
8.95868 2.16948 3.47823 120 110 100 -0.115 0.257 0.96 0
8.99568 2.19106 3.47928 93 83 74 0.383 0.697 0.606 0
9.00269 2.19878 3.48267 88 78 69 0.179 0.871 0.457 0
9.02191 2.20527 3.47903 86 76 67 0.141 0.876 0.461 0
9.03624 2.21228 3.47839 91 83 72 0.235 0.859 0.455 0
9.05062 2.21938 3.47734 107 98 90 0.178 0.839 0.513 0
9.06495 2.22639 3.47669 136 127 120 -0.02 0.859 0.511 0
9.28969 2.31642 3.44675 107 96 86 0.057 0.953 0.297 0
9.31914 2.3223 3.43788 94 82 68 0.053 0.979 0.197 0
9.35525 2.32771 3.42524 78 66 51 0.059 0.974 0.218 0
7.74557 0.648472 2.74871 207 208 203 -0.31 -0.524 0.793 0
7.74171 0.658695 2.75942 206 207 202 -0.294 0.243 0.924 0
7.74786 0.665693 2.76282 228 229 224 -0.294 0.243 0.924 0
7.7532 0.67326 2.76668 251 252 247 -0.317 0.245 0.916 0
7.75956 0.68025 2.76996 240 241 236 -0.317 0.245 0.916 0
7.78982 0.689163 2.76319 214 215 210 0.037 0.115 0.993 0
7.79306 0.697251 2.76865 232 233 228 0.077 0.242 0.967 0
7.79875 0.704479 2.77219 250 251 246 0.063 0.25 0.966 0
7.79719 0.714171 2.78119 248 249 244 -0.222 0.368 0.903 0
7.79527 0.723668 2.79053 226 227 222 -0.375 -0.167 0.912 0
7.79978 0.731267 2.79488 201 202 197 -0.408 -0.14 0.902 0
7.80794 0.73786 2.79698 207 209 204 -0.485 0.537 0.69 0
7.81977 0.743317 2.79595 187 189 184 -0.482 0.542 0.688 0
7.82107 0.752132 2.80279 131 133 128 -0.395 0.549 0.736 0
7.82508 0.759866 2.80768 118 120 115 -0.239 0.343 0.908 0
7.81891 0.770619 2.82011 112 114 109 0.078 -0.049 0.996 0
7.82946 0.776565 2.8202 94 96 91 -0.191 -0.026 0.981 0
7.83465 0.783926 2.82428 95 97 92 -0.071 -0.172 0.983 0
7.84167 0.790987 2.82679 121 123 118 0.262 -0.179 0.948 0
7.84231 0.799731 2.83439 182 183 178 -0.185 -0.069 0.98 0
7.84576 0.807811 2.83973 205 206 201 -0.241 0.47 0.849 0
7.85544 0.814003 2.8402 194 195 190 -0.153 0.47 0.869 0
7.86165 0.821324 2.84368 196 197 192 -0.241 0.47 0.849 0
7.86919 0.827942 2.84615 203 204 199 -0.217 0.456 0.863 0
7.88087 0.833729 2.84532 176 177 172 0.54 0.36 0.76 0
7.88529 0.841445 2.84998 133 134 129 0.459 0.318 0.83 0
7.88971 0.849162 2.85463 124 125 120 0.459 0.318 0.83 0
7.88885 0.858178 2.86298 160 160 158 0.558 0.465 0.688 0
7.89558 0.865364 2.86591 197 197 195 0.528 0.392 0.753 0
7.90148 0.872583 2.86933 193 193 191 0.021 0.113 0.993 0
7.91076 0.879018 2.87053 195 195 193 0.068 -0.233 0.97 0
7.89579 0.892185 2.88908 236 236 234 -0.198 0.15 0.969 0
7.89928 0.900052 2.89452 250 250 248 -0.218 0.165 0.962 0
7.90462 0.907619 2.89838 251 251 250 -0.218 0.165 0.962 0
7.90981 0.91498 2.90247 238 239 238 -0.251 0.057 0.966 0
7.91146 0.923457 2.90898 209 211 208 0.572 0.154 0.806 0
7.9234 0.929023 2.90813 199 201 197 -0.675 0.381 0.632 0
7.93151 0.935829 2.91014 198 200 195 -0.709 0.324 0.626 0
7.94913 0.940079 2.90535 187 189 184 -0.71 0.301 0.636 0
7.9598 0.946134 2.90562 176 178 173 -0.713 0.292 0.637 0
7.97021 0.95241 2.90591 188 190 185 -0.712 0.293 0.638 0
7.99948 0.962351 2.9007 186 188 183 0.018 -0.845 0.534 0
7.97309 0.987131 2.935 223 225 220 0.689 0.004 0.724 0
7.97136 0.996393 2.94373 241 243 238 0.681 0.016 0.732 0
7.97061 1.00552 2.95226 250 252 247 0.375 0.545 0.75 0
7.97068 1.01438 2.95983 250 252 247 0.209 0.43 0.878 0
7.98037 1.0208 2.96078 246 248 243 0.162 0.421 0.893 0
7.99544 1.0258 2.95774 224 226 221 0.163 -0.331 0.929 0
7.99689 1.03429 2.96437 202 204 199 0.308 -0.632 0.711 0
7.99045 1.04473 2.97684 212 214 209 0.213 -0.539 0.815 0
7.98821 1.05412 2.98611 221 223 218 0.132 -0.459 0.878 0
8.50417 1.80673 3.39458 167 168 162 -0.309 -0.064 0.949 0
8.50771 1.8147 3.39961 160 161 155 0.146 -0.362 0.92 0
8.51096 1.82279 3.40507 168 169 162 0.143 -0.37 0.918 0
8.51055 1.83135 3.41279 188 189 181 0.143 -0.37 0.918 0
8.51013 1.83991 3.42051 175 176 168 0.143 -0.37 0.918 0
8.51435 1.84763 3.42528 163 164 156 0.215 -0.107 0.971 0
8.54129 1.89445 3.45294 175 176 170 -0.001 -0.095 0.996 0
8.54782 1.90187 3.45648 175 176 170 -0.042 -0.169 0.985 0
8.5541 1.90951 3.46004 168 169 163 -0.034 -0.181 0.983 0
8.56155 1.91678 3.4628 172 173 167 -0.022 0.574 0.818 0
8.56315 1.92494 3.46922 185 186 181 0.336 0.327 0.883 0
8.56809 1.93275 3.47381 187 188 183 0.336 0.327 0.883 0
8.56607 1.94147 3.4821 165 166 161 0.165 0.483 0.86 0
8.56139 1.95052 3.49244 152 152 149 0.477 0.323 0.817 0
8.58038 1.95626 3.48846 155 156 152 0.266 0.05 0.963 0
8.60374 1.96992 3.48903 124 127 120 0.264 0.063 0.963 0
8.86673 2.11445 3.48847 102 94 83 0.169 0.796 0.582 0
8.87868 2.12145 3.48897 97 87 77 0.166 0.812 0.56 0
8.88764 2.12898 3.49097 106 96 86 -0.32 0.884 0.34 0
8.9135 2.13445 3.48358 135 125 113 -0.34 0.856 0.391 0
8.93756 2.14864 3.48435 134 124 114 -0.193 0.292 0.937 0
8.9991 2.18471 3.48603 91 81 72 0.415 0.743 0.524 0
9.02503 2.19051 3.47873 86 76 67 0.451 0.725 0.52 0
9.03079 2.19829 3.48284 87 77 68 0.16 0.871 0.464 0
9.04678 2.20523 3.48122 94 86 76 0.195 0.856 0.479 0
9.06012 2.21237 3.48078 112 103 95 0.193 0.847 0.495 0
9.07404 2.2194 3.48037 137 128 121 0.161 0.853 0.496 0
9.30621 2.30882 3.44658 107 96 86 0.057 0.953 0.297 0
9.34237 2.31401 3.43404 97 84 71 0.053 0.979 0.197 0
9.37404 2.32001 3.42374 75 63 46 0.058 0.973 0.221 0
9.70977 2.37907 3.31388 98 78 54 -0.064 0.967 0.248 0
7.74932 0.642764 2.7555 198 199 194 -0.362 -0.495 0.79 0
7.74622 0.652632 2.76565 214 215 210 -0.113 0.16 0.981 0
7.75094 0.660223 2.76988 237 238 233 -0.244 0.351 0.904 0
7.75792 0.667189 2.77279 242 243 238 -0.244 0.351 0.904 0
7.7722 0.671785 2.76984 218 219 214 -0.565 -0.156 0.81 0
7.77809 0.679004 2.77326 207 208 203 -0.564 -0.159 0.81 0
7.78083 0.687227 2.77926 204 205 200 -0.556 -0.173 0.813 0
7.79041 0.693535 2.78004 215 216 211 -0.567 -0.077 0.82 0
7.79784 0.700045 2.78232 239 240 235 -0.614 -0.122 0.78 0
7.7996 0.70863 2.78901 239 240 235 -0.556 -0.075 0.827 0
7.79574 0.718853 2.79973 212 213 208 -0.375 -0.167 0.912 0
7.80205 0.726056 2.80291 181 182 177 -0.378 -0.153 0.913 0
7.81005 0.732754 2.80473 184 186 181 -0.61 0.334 0.718 0
7.81154 0.741026 2.81146 184 186 181 -0.551 0.59 0.59 0
7.82251 0.746955 2.8113 124 126 121 -0.485 0.531 0.695 0
7.81992 0.756689 2.8209 109 111 106 -0.103 0.437 0.894 0
7.82383 0.764539 2.8261 103 105 100 -0.085 0.397 0.914 0
7.83607 0.769979 2.82483 92 94 89 0.06 0.423 0.904 0
7.83528 0.779317 2.83326 103 105 100 0.119 0.489 0.864 0
7.84618 0.784924 2.83302 122 124 119 0.262 -0.169 0.95 0
7.84559 0.794253 2.84133 186 187 182 0.048 0.418 0.907 0
7.85129 0.801481 2.84487 206 207 202 0.081 0.529 0.845 0
7.85974 0.807949 2.84655 198 199 194 -0.159 0.438 0.885 0
7.88117 0.819941 2.84678 196 197 192 0.467 0.522 0.714 0
7.89111 0.825911 2.84723 164 165 160 0.511 0.477 0.715 0
7.89338 0.834363 2.85338 129 130 125 0.56 0.42 0.714 0
7.89683 0.842443 2.85872 114 115 110 0.54 0.411 0.735 0
7.90053 0.850302 2.86403 130 130 128 0.558 0.465 0.688 0
7.90664 0.857513 2.86733 177 177 175 0.587 0.431 0.685 0
7.90594 0.866733 2.87546 199 199 197 0.259 0.047 0.965 0
7.91354 0.873674 2.87801 208 208 206 0.047 -0.137 0.989 0
7.8985 0.886519 2.89648 228 228 226 -0.198 0.15 0.969 0
7.90661 0.893325 2.89849 249 249 247 0.198 0.546 0.814 0
7.91486 0.899801 2.90029 250 250 248 0.095 0.545 0.833 0
7.92149 0.907105 2.90353 233 234 232 0.259 0.498 0.828 0
7.92441 0.915093 2.90892 215 217 214 0.585 0.178 0.791 0
7.92715 0.923315 2.91493 227 229 225 0.585 0.178 0.791 0
7.92553 0.932685 2.92384 235 237 232 0.581 0.203 0.788 0
7.95919 0.941574 2.91533 193 195 190 -0.712 0.293 0.638 0
7.98914 0.960356 2.91732 194 196 191 -0.067 -0.835 0.547 0
7.95958 0.985912 2.95372 247 249 244 0.053 -0.784 0.618 0
7.96938 1.00098 2.96233 248 250 245 0.264 0.575 0.774 0
7.96786 1.01024 2.97095 247 249 244 -0.278 0.101 0.955 0
7.98463 1.01496 2.96703 236 238 233 0.195 0.411 0.89 0
7.98843 1.0227 2.97205 209 211 206 0.272 0.355 0.894 0
7.99812 1.02912 2.973 193 195 190 0.21 -0.582 0.785 0
7.99429 1.0389 2.98333 201 203 198 0.202 -0.507 0.838 0
7.99108 1.04866 2.9933 195 197 192 0.132 -0.459 0.878 0
8.15099 1.16847 3.02123 198 199 193 0.505 -0.09 0.858 0
8.50112 1.80184 3.40535 170 171 165 -0.313 -0.068 0.947 0
8.50512 1.80957 3.41024 175 176 170 -0.313 -0.068 0.947 0
8.50713 1.81771 3.41642 180 181 173 -0.314 0.144 0.939 0
8.5095 1.82604 3.42227 185 186 178 -0.313 0.128 0.941 0
8.51674 1.83332 3.42515 172 173 165 0.227 -0.11 0.968 0
8.51833 1.84148 3.43157 161 162 154 0.227 -0.11 0.968 0
8.55048 1.89588 3.46379 196 197 191 -0.042 -0.169 0.985 0
8.56117 1.9027 3.46453 178 179 173 -0.116 0.5 0.858 0
8.57048 1.90989 3.4662 188 189 183 -0.107 0.511 0.853 0
8.5746 1.91773 3.47127 191 192 187 0.324 0.329 0.887 0
8.58005 1.92541 3.47532 158 159 154 0.374 0.318 0.871 0
8.57321 1.93498 3.48667 137 138 133 0.151 0.485 0.861 0
8.57094 1.94361 3.49548 133 134 129 0.477 0.323 0.817 0
8.58822 1.94962 3.49237 134 135 130 0.252 0.034 0.967 0
8.91671 2.12812 3.49045 146 136 124 -0.307 0.893 0.329 0
8.92955 2.1354 3.49055 142 132 120 -0.157 0.788 0.596 0
9.36564 2.30581 3.4298 103 89 76 0.053 0.979 0.197 0
7.74428 0.639697 2.76891 194 195 190 -0.103 0.14 0.985 0
7.749 0.647288 2.77313 216 217 212 -0.103 0.14 0.985 0
7.75321 0.655013 2.77791 238 239 234 -0.251 0.355 0.9 0
7.75262 0.664342 2.78622 234 235 230 -0.493 0.358 0.793 0
7.77253 0.667301 2.77925 211 212 207 -0.564 -0.159 0.81 0
7.77663 0.674917 2.78384 207 208 203 -0.564 -0.159 0.81 0
7.76464 0.687542 2.80089 210 211 206 -0.468 0.054 0.882 0
7.79119 0.688596 2.78881 222 223 218 -0.614 -0.122 0.78 0
7.79617 0.695966 2.79302 234 235 230 -0.614 -0.122 0.78 0
7.801 0.703666 2.79743 221 222 217 -0.614 -0.122 0.78 0
7.7821 0.718191 2.81914 205 206 201 -0.558 -0.145 0.817 0
7.80569 0.720239 2.80952 192 193 188 -0.381 -0.126 0.916 0
7.80438 0.729711 2.8185 189 190 185 -0.618 0.369 0.694 0
7.81294 0.736061 2.81987 183 185 180 -0.566 0.564 0.601 0
7.824 0.741874 2.81941 116 118 113 -0.583 0.534 0.612 0
7.82602 0.750237 2.82608 100 102 97 -0.428 0.528 0.733 0
7.82906 0.758334 2.83166 110 112 107 -0.115 0.402 0.908 0
7.84171 0.763758 2.83015 104 106 101 0.06 0.423 0.904 0
7.84807 0.770748 2.83343 110 112 107 0.06 0.423 0.904 0
7.85244 0.778678 2.83798 128 130 125 0.118 0.485 0.866 0
7.84944 0.788428 2.84783 189 190 185 0.066 0.421 0.904 0
7.85759 0.795021 2.84993 203 204 199 0.081 0.529 0.845 0
7.86815 0.800967 2.85001 189 190 185 -0.141 0.455 0.879 0
7.88333 0.814621 2.85463 174 175 170 0.403 0.565 0.72 0
7.89972 0.818921 2.85057 170 171 166 0.516 0.474 0.713 0
7.90255 0.827027 2.85627 154 155 150 0.588 0.43 0.686 0
7.90697 0.834743 2.86092 120 121 116 0.574 0.446 0.686 0
7.91042 0.842823 2.86626 113 113 110 0.575 0.453 0.682 0
7.91703 0.849901 2.86902 153 153 151 0.572 0.452 0.685 0
7.92156 0.857726 2.87385 195 195 193 0.483 0.369 0.794 0
7.90832 0.870175 2.89115 212 212 210 0.068 -0.13 0.989 0
7.90921 0.879007 2.89823 216 216 214 0.188 0.716 0.672 0
7.91628 0.885855 2.90084 244 244 242 0.262 0.688 0.676 0
7.9225 0.893175 2.90432 243 243 241 0.28 0.487 0.827 0
7.93096 0.899642 2.906 222 223 221 0.294 0.488 0.822 0
7.93491 0.907589 2.91079 212 213 210 0.577 0.196 0.793 0
7.93913 0.915314 2.91556 236 238 235 0.59 0.19 0.785 0
7.93965 0.923949 2.92298 250 252 247 0.574 0.205 0.793 0
7.96913 0.996085 2.97171 247 249 244 -0.201 0.144 0.969 0
7.97002 1.00492 2.97879 240 242 237 -0.278 0.101 0.955 0
7.98483 1.00983 2.97627 226 228 223 0.259 0.533 0.806 0
7.98637 1.0182 2.9826 207 209 204 0.116 0.33 0.937 0
8.00017 1.02369 2.98067 199 201 196 0.21 -0.503 0.838 0
7.99772 1.03309 2.99006 199 201 196 0.206 -0.498 0.842 0
7.99656 1.04223 2.99884 160 162 157 0.13 -0.439 0.889 0
8.02982 1.0426 2.98308 127 129 124 -0.021 0.118 0.993 0
8.05846 1.07085 2.99405 237 238 233 -0.325 0.31 0.894 0
8.0656 1.07802 2.99675 235 236 231 -0.325 0.31 0.894 0
8.50541 1.8041 3.41869 227 228 222 -0.329 -0.048 0.943 0
8.50973 1.81193 3.42364 211 212 204 -0.318 0.132 0.939 0
8.51374 1.81967 3.42853 186 187 179 -0.318 0.11 0.942 0
8.51919 1.82734 3.43258 181 182 174 -0.318 0.11 0.942 0
8.52011 1.83573 3.43927 186 187 179 0.205 -0.156 0.966 0
8.51867 1.84433 3.4476 192 193 185 0.236 -0.184 0.954 0
8.52777 1.85154 3.44939 177 179 168 -0.03 0.099 0.995 0
8.55014 1.89044 3.4726 202 203 197 -0.029 0.091 0.995 0
8.57072 1.89578 3.46757 174 175 169 -0.074 0.541 0.838 0
8.58065 1.90295 3.46888 163 164 158 -0.066 0.537 0.841 0
8.58801 1.91034 3.47193 166 167 162 0.253 0.239 0.938 0
8.59043 1.91846 3.47788 135 136 131 0.192 0.539 0.82 0
8.59264 1.92659 3.48394 107 108 103 -0.016 0.516 0.856 0
8.59191 1.93505 3.4916 99 100 95 0.264 0.072 0.962 0
8.59494 1.94315 3.49718 99 100 95 0.264 0.072 0.962 0
8.8047 2.0847 3.52014 97 89 78 -0.501 0.527 0.687 0
9.33837 2.29333 3.44664 118 106 96 -0.016 0.963 0.269 0
9.38892 2.29731 3.42606 103 89 76 0.053 0.979 0.197 0
7.74639 0.63459 2.77665 191 192 187 -0.296 -0.216 0.93 0
7.74901 0.642703 2.78248 211 212 207 -0.296 -0.216 0.93 0
7.75511 0.649915 2.78578 226 227 222 -0.437 0.334 0.835 0
7.75702 0.65817 2.79226 217 218 212 -0.45 0.328 0.831 0
7.77351 0.662353 2.7879 222 223 218 -0.521 0.057 0.851 0
7.77828 0.669731 2.79223 230 231 226 -0.513 0.053 0.856 0
7.78403 0.677281 2.79585 234 235 230 -0.513 0.053 0.856 0
7.78952 0.684517 2.79951 245 246 241 -0.614 -0.122 0.78 0
7.79659 0.691365 2.80212 245 246 241 -0.617 -0.132 0.776 0
7.8008 0.69909 2.80689 222 223 218 -0.564 -0.067 0.823 0
7.78559 0.712704 2.82596 199 200 195 -0.554 -0.088 0.828 0
7.79236 0.719678 2.82899 191 192 187 -0.559 -0.081 0.825 0
7.80419 0.725134 2.82796 196 197 192 -0.622 0.361 0.695 0
7.81126 0.731982 2.83057 197 199 194 -0.601 0.534 0.595 0
7.82238 0.737581 2.83021 130 132 127 -0.583 0.534 0.612 0
7.82848 0.744793 2.83351 89 91 86 -0.428 0.528 0.733 0
7.83193 0.752873 2.83885 109 111 106 -0.202 0.221 0.954 0
7.83455 0.760986 2.84467 107 109 104 -0.189 0.385 0.903 0
7.84015 0.768331 2.84851 97 98 93 -0.135 0.34 0.931 0
7.84835 0.77502 2.85021 124 125 120 -0.115 0.291 0.95 0
7.85533 0.781985 2.85313 185 186 180 -0.014 0.468 0.884 0
7.86844 0.787179 2.85147 200 201 196 -0.127 0.216 0.968 0
7.86279 0.797799 2.86336 191 192 187 -0.201 0.093 0.975 0
7.90642 0.812219 2.8549 185 186 181 0.462 0.533 0.709 0
7.91146 0.819911 2.85919 176 177 172 0.535 0.429 0.728 0
7.91261 0.828522 2.86625 118 119 114 0.551 0.419 0.722 0
7.91057 0.837909 2.8754 96 97 92 0.52 0.257 0.815 0
7.91499 0.845625 2.88005 135 135 132 0.49 0.249 0.835 0
7.93103 0.850264 2.87632 185 186 183 0.483 0.369 0.794 0
7.9114 0.864705 2.89821 200 200 197 0.06 -0.139 0.988 0
7.92027 0.871156 2.89965 209 209 206 0.217 0.717 0.663 0
7.92714 0.878012 2.90238 238 238 235 0.256 0.692 0.675 0
7.93248 0.885579 2.90624 232 232 229 0.27 0.669 0.693 0
7.9389 0.89289 2.9096 217 218 215 0.294 0.488 0.822 0
7.97082 0.990995 2.97971 241 243 238 -0.48 -0.277 0.833 0
7.97232 0.999267 2.98643 228 230 224 -0.489 -0.261 0.832 0
7.97715 1.00697 2.99084 222 225 219 -0.478 -0.326 0.816 0
7.98664 1.01339 2.99192 210 212 207 -0.541 -0.015 0.841 0
7.98512 1.02265 3.00053 202 204 198 -0.484 -0.048 0.874 0
7.9903 1.03001 3.00462 181 183 178 -0.311 -0.181 0.933 0
7.99605 1.03756 3.00824 127 129 123 0.059 -0.164 0.985 0
8.03495 1.03651 2.98895 105 108 102 -0.022 0.133 0.991 0
8.04409 1.05182 2.99783 125 126 121 -0.039 0.34 0.94 0
8.0503 1.05914 3.00131 184 185 179 -0.039 0.34 0.94 0
8.05979 1.06556 3.00238 228 229 223 -0.331 0.317 0.889 0
8.0679 1.07237 3.00439 218 219 214 -0.325 0.31 0.894 0
8.07588 1.13219 3.05281 179 180 175 0.085 0.729 0.679 0
8.09389 1.14541 3.05565 190 191 185 -0.214 0.67 0.711 0
8.13477 1.15347 3.04292 170 171 165 -0.595 0.515 0.617 0
8.14847 1.15908 3.04129 187 188 182 -0.506 0.386 0.771 0
8.24232 1.41777 3.22183 163 166 159 -0.253 -0.3 0.92 0
8.48158 1.76846 3.41266 242 243 237 -0.239 0.094 0.966 0
8.50965 1.80626 3.43243 210 211 203 -0.332 0.14 0.933 0
8.51248 1.81437 3.43813 181 182 174 -0.336 0.167 0.927 0
8.51993 1.82164 3.44089 181 182 174 0.109 -0.248 0.963 0
8.52097 1.83014 3.44776 194 195 187 0.109 -0.248 0.963 0
8.52065 1.83858 3.45518 195 196 188 0.296 -0.215 0.931 0
8.52873 1.84583 3.45757 176 178 167 -0.052 0.057 0.997 0
8.53567 1.85323 3.46087 163 165 156 -0.047 0.114 0.992 0
8.54796 1.87675 3.47551 193 194 188 -0.115 0.581 0.806 0
8.55433 1.88427 3.47877 187 188 182 0.094 0.159 0.983 0
8.56045 1.89171 3.48256 154 155 149 0.262 0.111 0.959 0
8.58181 1.89724 3.47694 129 130 124 -0.076 0.554 0.829 0
8.59034 1.90425 3.47919 140 141 136 -0.027 0.542 0.84 0
8.59745 1.9204 3.48975 88 89 83 0.062 0.72 0.692 0
8.78057 2.07339 3.53563 85 77 66 -0.508 0.58 0.637 0
9.71649 2.35017 3.33021 101 81 54 -0.122 0.962 0.245 0
7.74706 0.629768 2.78573 183 184 179 -0.31 -0.224 0.924 0
7.74923 0.638111 2.7917 200 201 196 -0.302 -0.225 0.927 0
7.77384 0.639583 2.78149 196 197 192 -0.254 -0.284 0.925 0
7.77027 0.64968 2.79179 177 178 172 -0.018 0.169 0.986 0
7.76687 0.659673 2.80236 205 206 200 0.301 0.473 0.828 0
7.77436 0.666504 2.80472 220 221 216 0.3 0.459 0.837 0
7.77846 0.674121 2.80932 226 227 222 0.261 0.469 0.843 0
7.78881 0.680075 2.80952 246 247 242 -0.286 0.227 0.931 0
7.7733 0.693815 2.82901 250 251 246 0.236 -0.046 0.971 0
7.77613 0.70192 2.83471 226 227 222 0.128 0.095 0.987 0
7.78023 0.709536 2.8393 212 213 208 0.08 0.066 0.995 0
7.78388 0.717608 2.84452 192 193 188 0.08 0.066 0.995 0
7.8042 0.72055 2.83731 179 180 175 -0.613 0.374 0.696 0
7.81711 0.725752 2.83577 197 198 193 -0.584 0.512 0.63 0
7.82326 0.732751 2.83917 181 182 177 -0.583 0.534 0.612 0
7.83167 0.739431 2.84075 115 116 111 -0.442 0.514 0.735 0
7.83685 0.746793 2.84483 102 103 98 -0.184 0.172 0.968 0
7.83784 0.755508 2.85161 92 93 88 -0.186 0.371 0.91 0
7.8442 0.762498 2.85488 82 83 77 -0.142 0.332 0.932 0
7.85286 0.768957 2.85644 116 117 111 -0.13 0.292 0.948 0
7.87601 0.771461 2.84745 175 176 170 0.167 0.77 0.615 0
7.88661 0.777194 2.84764 188 189 184 0.167 0.77 0.615 0
7.91863 0.812979 2.86338 183 184 179 0.382 0.564 0.732 0
7.91998 0.821581 2.87031 123 124 119 0.252 0.18 0.951 0
7.92066 0.830422 2.87751 85 86 81 0.5 0.291 0.816 0
7.9258 0.837996 2.8815 133 134 129 0.288 0.15 0.946 0
7.91901 0.848775 2.89429 185 186 181 0.056 -0.231 0.971 0
7.91483 0.858896 2.90494 195 196 191 0.06 -0.139 0.988 0
7.91715 0.867135 2.91119 218 219 214 0.06 -0.139 0.988 0
7.9185 0.875738 2.91813 231 232 227 -0.088 0.001 0.996 0
7.92225 0.883692 2.92304 218 219 214 -0.076 0.007 0.997 0
7.95408 0.955084 2.97016 231 232 227 -0.406 -0.524 0.749 0
7.95691 0.963189 2.97586 237 238 233 -0.41 -0.522 0.748 0
7.97289 0.994336 2.99533 220 223 216 -0.478 -0.326 0.816 0
7.97526 1.00267 3.00118 211 214 207 -0.478 -0.326 0.816 0
7.98592 1.00872 3.00144 203 206 199 -0.541 -0.015 0.841 0
8.03437 1.02297 2.99079 101 104 97 -0.022 0.133 0.991 0
8.03879 1.03068 2.99544 96 99 92 -0.022 0.133 0.991 0
8.0433 1.03828 2.99979 100 102 95 -0.022 0.133 0.991 0
8.04819 1.04577 3.0043 122 123 117 -0.066 0.19 0.98 0
8.05512 1.05295 3.00711 188 189 183 -0.331 0.317 0.889 0
8.06205 1.06013 3.00993 225 226 220 -0.331 0.317 0.889 0
8.07036 1.06692 3.01181 217 218 213 -0.354 0.315 0.881 0
8.07973 1.12637 3.0593 201 202 197 -0.076 0.782 0.619 0
8.09794 1.13957 3.06202 213 214 208 -0.144 0.716 0.683 0
8.11533 1.14427 3.05774 210 211 205 0.283 0.332 0.9 0
8.14097 1.1469 3.04779 195 196 190 -0.588 0.433 0.683 0
8.51405 1.80864 3.44595 173 174 166 -0.336 0.167 0.927 0
8.52557 1.81542 3.44621 174 175 167 0.044 -0.234 0.971 0
8.52454 1.824 3.45429 181 182 174 0.109 -0.248 0.963 0
8.52779 1.83209 3.45975 185 186 178 0.108 -0.194 0.975 0
8.53483 1.83938 3.46275 183 185 174 -0.047 0.114 0.992 0
8.53925 1.8471 3.4674 173 174 166 -0.047 0.114 0.992 0
8.54187 1.85521 3.47322 169 170 162 0.042 0.287 0.957 0
8.5465 1.86292 3.47775 189 190 184 -0.099 0.536 0.838 0
8.55174 1.8706 3.48192 200 201 195 -0.063 0.569 0.82 0
8.55843 1.87823 3.48524 180 181 175 0.121 0.241 0.963 0
8.5665 1.88547 3.48763 139 140 134 0.262 0.111 0.959 0
8.58039 1.89174 3.48676 129 130 124 -0.043 0.687 0.725 0
8.58132 1.90013 3.49345 141 142 136 0.145 0.819 0.555 0
8.59495 1.90662 3.49259 115 116 110 0.119 0.833 0.54 0
8.78414 2.06725 3.54216 84 76 65 0.048 0.892 0.45 0
9.73111 2.34255 3.33153 100 80 52 -0.122 0.966 0.228 0
9.77375 2.34803 3.31581 102 82 52 -0.126 0.965 0.231 0
7.74639 0.616343 2.78788 198 199 194 -0.295 -0.229 0.928 0
7.74897 0.62467 2.7936 187 188 183 -0.295 -0.229 0.928 0
7.76892 0.627416 2.78673 190 191 185 -0.035 0.122 0.992 0
7.77037 0.635901 2.79336 158 159 153 -0.101 0.134 0.986 0
7.77213 0.644486 2.80006 139 140 133 0.361 0.521 0.773 0
7.77261 0.653335 2.80738 164 165 158 0.632 0.455 0.627 0
7.77862 0.660663 2.81098 177 178 172 0.637 0.45 0.626 0
7.78431 0.667891 2.81452 194 195 189 0.54 0.462 0.704 0
7.78776 0.675971 2.81986 233 234 229 0.253 0.479 0.841 0
7.77852 0.68761 2.83457 243 244 239 0.236 -0.046 0.971 0
7.78089 0.695944 2.84042 216 217 212 0.107 0.117 0.987 0
7.78628 0.703298 2.84438 229 230 225 0.054 0.081 0.995 0
7.79008 0.711039 2.84939 231 232 227 0.066 0.063 0.996 0
7.7948 0.71863 2.85362 196 197 192 0.038 0.079 0.996 0
7.80208 0.72547 2.85611 180 181 176 -0.121 0.231 0.965 0
7.82823 0.726767 2.84475 209 210 205 -0.548 0.514 0.661 0
7.83383 0.734112 2.8486 171 172 167 -0.442 0.514 0.735 0
7.83993 0.741323 2.85189 114 115 110 -0.183 0.192 0.964 0
7.84159 0.7498 2.8584 91 92 87 -0.186 0.371 0.91 0
7.84825 0.756664 2.86126 95 96 90 -0.186 0.371 0.91 0
7.85712 0.763116 2.86269 143 144 138 -0.174 0.343 0.923 0
7.92659 0.814997 2.87494 121 122 117 -0.14 -0.626 0.767 0
7.92379 0.824739 2.88467 87 88 83 -0.14 -0.626 0.767 0
7.92161 0.834456 2.89403 138 139 134 -0.139 -0.622 0.771 0
7.91789 0.844349 2.90454 187 188 183 -0.03 -0.433 0.901 0
7.90905 0.855745 2.91853 202 203 198 -0.064 0.001 0.998 0
7.91854 0.862171 2.91961 229 230 225 0.028 -0.083 0.996 0
7.92045 0.870426 2.92609 213 214 209 -0.042 -0.02 0.999 0
7.92441 0.878373 2.93089 193 194 189 -0.058 0.005 0.998 0
7.95171 0.941939 2.97317 220 221 216 -0.296 -0.511 0.807 0
